-39.0589 -31.1291 499.106 9 9 9
-41.2467 -27.7926 495.95 8 8 8
-43.9292 -25.3701 493.826 9 9 9
-45.6084 -23.0822 492.461 9 9 9
-47.2656 -20.0894 491.813 10 10 10
-46.7755 -19.7868 491.638 14 14 14
-45.9781 -19.8127 491.783 9 9 9
-44.9867 -19.3963 492.789 17 17 17
-44.4589 -19.4819 494.632 8 8 8
-42.7898 -20.4967 495.859 10 10 10
-40.7937 -21.8007 497.277 10 10 10
-38.9852 -22.725 499.153 7 7 7
-36.6747 -24.4228 502.232 9 9 9
-33.307 -26.6993 504.395 8 8 8
-30.5481 -28.4158 507.881 9 9 9
-27.8512 -30.6333 511.283 8 8 8
-24.038 -32.4498 515.381 8 8 8
-20.7342 -34.8174 519.029 9 9 9
-17.325 -37.7423 523.053 8 8 8
-13.9956 -39.0078 525.748 7 7 7
-11.0533 -41.0583 529.524 10 10 10
-7.3635 -42.6557 532.147 4 4 4
-0.608475 -45.2627 535.993 3 3 3
-0.685365 -43.6308 536.029 3 3 3
-3.44363 -41.8788 533.297 9 9 9
-6.75687 -40.411 528.576 11 11 11
-9.75358 -38.198 525.551 9 9 9
-13.8855 -36.0866 522.081 9 9 9
-18.3293 -33.9275 517.219 7 7 7
-24.4465 -30.944 510.891 9 9 9
-28.8581 -27.0327 504.73 8 8 8
-34.8762 -23.9415 499.509 7 7 7
-50.822 -8.48468 487.375 5 5 5
-47.9906 -8.54873 491.03 6 6 6
-39.6443 -10.5343 498.843 6 6 6
-14.3594 -20.6137 524.553 14 14 14
-8.77697 -22.7354 529.69 11 11 11
-3.16216 -25.6845 535.764 43 43 43
2.07533 -27.4938 540.825 16 16 16
10.0566 -32.6263 547.31 11 11 11
12.9885 -35.3021 549.834 11 11 11
15.1256 -37.317 550.481 11 11 11
15.7826 -38.4844 550.993 11 11 11
15.4331 -39.5999 550.114 12 12 12
10.1151 -38.8738 544.527 12 12 12
5.85632 -38.0421 540.108 12 12 12
0.145873 -36.2521 534.51 14 14 14
-6.74684 -34.5948 527.004 12 12 12
-14.5394 -31.4958 518.025 9 9 9
-23.3122 -28.3478 508.858 7 7 7
-31.8735 -24.4597 501.183 7 7 7
-31.5693 -14.8569 504.781 8 8 8
-31.6212 -15.3668 504.3 8 8 8
-33.0297 -14.7018 502.538 8 8 8
-35.2385 -13.7827 499.651 8 8 8
-38.2894 -11.8585 496.773 8 8 8
-41.7597 -8.83698 493.285 6 6 6
-49.0633 -21.6857 489.559 8 8 8
-51.0092 -22.4551 488.344 6 6 6
-51.5843 -23.0974 486.965 6 6 6
-72.4242 -14.3031 467.944 4 4 4
-74.4728 -28.6038 468.116 8 8 8
-73.2747 -30.3767 470.341 6 6 6
-71.44 -31.6109 471.527 7 7 7
-70.4609 -33.2067 472.238 8 8 8
-70.1975 -34.2163 474.11 8 8 8
-69.5155 -34.87 475.07 9 9 9
-68.0436 -35.4762 476.284 8 8 8
-67.2403 -36.5431 475.877 8 8 8
-66.438 -37.3409 477.671 9 9 9
-67.308 -38.7667 476.773 31 31 31
-71.7073 -40.2307 474.426 42 42 42
-67.7607 -38.7967 477.749 31 31 31
-66.3966 -37.8786 478.056 9 9 9
-65.3656 -38.2266 477.833 9 9 9
-63.6013 -37.5362 481.237 8 8 8
-62.7403 -37.3667 481.952 8 8 8
-61.2817 -37.018 483.001 8 8 8
-58.419 -36.7675 484.534 8 8 8
-57.5388 -36.9975 486.204 8 8 8
-56.1366 -36.847 486.644 8 8 8
-55.6629 -36.6307 486.78 8 8 8
-54.9147 -36.1041 487.663 8 8 8
-54.3551 -35.0858 486.194 9 9 9
-54.9165 -34.0965 486.275 8 8 8
-55.621 -33.1419 485.602 9 9 9
-55.978 -32.1721 485.436 9 9 9
-55.5747 -31.3129 484.671 8 8 8
-55.9789 -29.74 485.265 8 8 8
-55.8446 -30.2368 485.699 7 7 7
-55.2669 -29.8719 485.693 7 7 7
-54.5497 -29.6821 486.304 7 7 7
-53.9276 -29.1782 486.52 8 8 8
-53.1406 -28.8347 487.244 8 8 8
-52.3552 -28.2642 487.702 7 7 7
-52.6668 -28.0168 486.573 8 8 8
-53.2458 -27.5546 486.852 7 7 7
-53.4269 -26.727 486.561 7 7 7
-55.4291 -25.5021 484.293 8 8 8
-56.1157 -23.4524 482.61 6 6 6
-57.5924 -21.3257 481.214 5 5 5
-63.6715 -14.9665 476.164 5 5 5
-69.0719 -7.36015 471.024 5 5 5
-69.7652 -10.1913 472.524 6 6 6
-68.8224 -11.7923 472.341 5 5 5
-64.0367 -17.1462 476.387 5 5 5
-62.6051 -19.5478 477.781 5 5 5
-63.0377 -20.4622 478.111 5 5 5
-62.0896 -21.1837 477.97 4 4 4
-63.2119 -21.0909 476.886 4 4 4
-65.5846 -20.1451 474.951 5 5 5
-67.3006 -19.0282 472.105 5 5 5
-73.1796 -25.3689 469.384 6 6 6
-71.2447 -27.4167 472.183 6 6 6
-68.9833 -28.9805 473.183 6 6 6
-67.784 -29.4463 475.007 7 7 7
-67.6022 -29.2693 475.168 7 7 7
-67.8803 -27.9348 473.852 6 6 6
-67.9206 -25.8211 473.99 5 5 5
-68.1019 -24.2295 472.19 5 5 5
-68.5064 -21.7436 471.695 4 4 4
-69.9177 -19.2185 471.375 4 4 4
-70.2491 -14.5622 470.067 5 5 5
-70.5863 -12.3884 469.664 5 5 5
-71.5592 -9.84262 469.57 5 5 5
-74.951 -2.32929 466.115 7 7 7
-75.8869 -0.010861 465.091 12 12 12
-69.0627 1.13496 472.46 5 5 5
-66.7992 -0.552791 473.775 4 4 4
-65.1299 -2.0457 475.515 5 5 5
-64.8727 -3.50543 475.315 5 5 5
-66.2381 -5.1448 474.297 5 5 5
-69.4154 -4.45898 471.95 5 5 5
-70.0541 -4.26077 470.849 5 5 5
-70.763 -3.90022 469.884 5 5 5
-72.1206 -3.6864 468.747 5 5 5
-73.0805 -2.85144 468.978 5 5 5
-73.8573 -1.36218 467.961 5 5 5
-74.1546 -1.04383 466.664 6 6 6
-61.0724 19.5177 482.354 9 9 9
-54.4281 14.2201 487.49 7 7 7
-51.6141 12.9642 488.404 3 3 3
-79.0181 0.29916 463.081 14 14 14
-78.2182 -2.27012 464.738 6 6 6
-76.8213 -3.85252 466.28 5 5 5
-75.3366 -5.09732 467.431 5 5 5
-73.9074 -6.45502 467.664 5 5 5
-72.5882 -7.34072 468.652 5 5 5
-71.7183 -7.86045 469.293 5 5 5
-70.2355 -9.01702 472.796 8 8 8
-66.5128 -11.0573 475.317 5 5 5
-62.3658 -13.7563 479.753 5 5 5
-56.9971 -17.922 484.444 5 5 5
-51.4585 -22.4085 490.585 8 8 8
-45.3804 -27.4388 495.475 9 9 9
-39.8621 -31.8808 501.499 8 8 8
-35.3109 -36.4862 507.482 8 8 8
-32.2251 -40.7205 511.791 7 7 7
-28.1905 -44.1575 513.721 8 8 8
-26.8396 -46.6514 516.638 19 19 19
-25.9755 -48.1463 517.418 21 21 21
-28.0893 -47.535 514.184 23 23 23
-36.3099 -42.2289 504.192 9 9 9
-39.7592 -39.4939 501.453 8 8 8
-42.7301 -36.2337 497.384 8 8 8
-45.2297 -32.7295 493.663 8 8 8
-48.0522 -29.046 490.57 8 8 8
-49.4878 -25.9761 488.805 8 8 8
-50.5193 -23.4217 488.593 7 7 7
-50.7008 -21.2598 487.444 7 7 7
-51.4365 -19.7437 486.631 6 6 6
-51.2439 -18.0266 486.848 5 5 5
-52.5838 -16.1163 485.72 6 6 6
-52.7897 -14.4127 485.049 6 6 6
-53.9195 -12.6038 483.699 7 7 7
-54.7227 -11.9843 481.992 6 6 6
-57.3608 -10.0444 481.643 7 7 7
-59.0047 -9.95476 480.446 7 7 7
-60.751 -8.3349 478.707 6 6 6
-61.4665 -7.78208 477.714 6 6 6
-63.2042 -6.93873 476.598 5 5 5
-63.8994 -7.21967 475.76 5 5 5
-63.6186 -7.3058 476.136 6 6 6
-64.0946 -7.7242 476.296 5 5 5
-64.0245 -8.52729 476.477 5 5 5
-62.3822 -11.7097 476.842 5 5 5
-63.1321 -13.7731 477.449 5 5 5
-62.5389 -15.4546 477.656 5 5 5
-62.8612 -17.3419 477.833 5 5 5
-62.3154 -20.1594 477.926 4 4 4
-62.1965 -22.1015 477.668 5 5 5
-62.6365 -23.4498 477.923 5 5 5
-62.3844 -24.9189 477.797 6 6 6
-63.2781 -27.2582 478.808 7 7 7
-63.6653 -28.5641 476.434 7 7 7
-64.3874 -29.8979 475.449 7 7 7
-65.5701 -30.4973 475.145 6 6 6
-67.5697 -30.6309 473.158 7 7 7
-68.1406 -30.811 472.473 6 6 6
-70.5834 -29.8488 471.722 6 6 6
-71.1888 -29.5782 469.864 6 6 6
-72.6414 -28.806 467.772 8 8 8
-78.1829 0.0186265 464.782 7 7 7
-76.2462 -1.41468 465.52 7 7 7
-74.644 -2.14027 466.139 6 6 6
-76.2227 -1.04062 464.933 7 7 7
-75.6626 0.590773 464.489 10 10 10
-78.2109 3.58683 463.761 9 9 9
-75.3843 5.40114 466.194 12 12 12
-73.269 5.56648 468.802 9 9 9
-66.5193 9.79107 474.621 8 8 8
-65.8646 11.0347 475.829 8 8 8
-65.4722 11.7207 475.459 6 6 6
-65.5019 11.8806 475.529 6 6 6
-65.7444 12.6868 476.386 6 6 6
-58.5462 11.8212 482.461 8 8 8
-57.453 11.3029 482.898 9 9 9
-56.5788 11.2455 483.534 8 8 8
-56.3333 11.3796 483.293 8 8 8
-59.3838 5.77607 480.595 9 9 9
-59.9117 4.63025 479.979 7 7 7
-59.5683 4.10014 479.406 7 7 7
-60.9648 3.43931 478.594 8 8 8
-61.4084 2.81689 477.63 7 7 7
-64.2588 4.11147 474.87 9 9 9
-64.6229 4.17434 475.187 8 8 8
-66.0694 4.8987 474.583 8 8 8
-65.7369 3.86682 474.836 8 8 8
-64.4086 3.63066 475.796 8 8 8
-64.1492 2.43393 476.195 7 7 7
-62.8724 1.85206 477.111 7 7 7
-62.2998 0.997446 478.805 6 6 6
-60.2388 -0.828955 479.739 5 5 5
-58.3264 -1.3672 481.253 7 7 7
-57.5206 -2.49164 481.582 9 9 9
-56.5469 -2.70771 482.211 7 7 7
-56.8803 -2.33748 481.434 7 7 7
-58.0932 -1.8855 481.494 6 6 6
-59.0422 -0.59754 480.266 5 5 5
-59.3366 0.148926 478.455 6 6 6
-61.6577 1.98835 477.928 6 6 6
-62.2551 3.20398 476.856 7 7 7
-64.4928 7.03603 475.633 9 9 9
-65.0472 10.3295 476.425 8 8 8
-64.2529 11.6269 476.443 6 6 6
-65.4687 13.4699 476.597 7 7 7
-65.8248 13.77 475.636 8 8 8
-66.0208 14.6916 475.289 10 10 10
-67.1703 13.8063 473.991 8 8 8
-69.0504 9.76814 472.521 8 8 8
-70.2146 1.14302 471.121 5 5 5
-69.0892 -1.28895 472.906 5 5 5
-68.322 -4.29884 473.972 5 5 5
-66.541 -7.09119 474.351 5 5 5
-64.4214 -11.6014 476.036 6 6 6
-64.0991 -12.7907 476.055 5 5 5
-64.7539 -13.5539 476.079 5 5 5
-65.1651 -12.6247 473.949 6 6 6
-66.9102 -11.1205 473.062 6 6 6
-69.0308 -8.84037 471.61 5 5 5
-71.8444 -4.76087 468.828 5 5 5
-73.4908 -4.21799 468.203 5 5 5
-74.4821 -3.29354 467.084 6 6 6
-74.6776 -2.69239 466.758 6 6 6
-73.4452 -2.00258 466.431 6 6 6
-74.8023 -1.52957 467.078 6 6 6
-73.8353 -2.39682 467.515 5 5 5
-72.838 -2.76033 468.281 5 5 5
-72.3199 -2.61349 468.985 5 5 5
-71.7217 -1.94922 469.079 5 5 5
-72.2747 -1.11205 468.992 5 5 5
-72.7149 0.402808 467.992 7 7 7
-73.8317 2.29933 468.29 9 9 9
-73.4994 5.31907 467.91 9 9 9
-73.369 6.60479 468.484 9 9 9
-74.2523 11.2202 468.85 9 9 9
-75.6136 12.9986 468.03 8 8 8
-74.4059 10.8975 467.683 11 11 11
-76.2301 5.73908 465.594 12 12 12
-75.9486 5.76758 465.771 12 12 12
-79.8976 11.9608 463.834 7 7 7
-80.3871 12.1644 464.127 8 8 8
-77.3108 18.011 466.238 22 22 22
-73.1617 14.6159 469.245 11 11 11
-69.1595 8.1382 473.044 9 9 9
-68.7525 7.64991 472.436 9 9 9
-69.7339 8.98884 471.596 9 9 9
-71.4715 11.5605 470.092 7 7 7
-72.4076 13.1725 468.929 12 12 12
-71.915 16.5374 470.684 11 11 11
-72.141 14.3526 470.129 8 8 8
-72.707 12.4557 469.06 9 9 9
-73.296 9.67801 469.394 8 8 8
-73.5362 2.79896 467.775 6 6 6
-73.2627 0.106164 468.205 7 7 7
-72.9106 -2.52405 469.596 5 5 5
-72.2226 -4.66476 471.068 5 5 5
-70.5605 -7.23669 470.291 5 5 5
-70.7113 -8.01764 470.147 5 5 5
-70.3718 -8.99871 470.83 4 4 4
-70.8976 -8.99196 469.356 5 5 5
-70.7196 -9.03873 469.366 6 6 6
-71.1258 -8.2166 469.483 5 5 5
-72.1567 -6.97187 469.341 6 6 6
-72.4291 -5.91705 469.118 5 5 5
-71.4053 -4.97845 470.161 5 5 5
-71.5664 -2.88368 470.388 5 5 5
-70.2644 -1.59994 470.871 5 5 5
-69.2337 0.810947 471.536 7 7 7
-67.137 6.42311 472.561 8 8 8
-67.098 8.89983 473.255 9 9 9
-67.4274 10.7777 473.108 8 8 8
-68.0883 13.0692 473.677 8 8 8
-70.4169 16.7517 472.124 12 12 12
-69.0455 9.71946 472.856 8 8 8
-68.8332 4.80546 471.885 8 8 8
-68.4038 2.5439 472.614 7 7 7
-68.2015 -0.181592 472.895 5 5 5
-68.4092 -2.86787 472.854 6 6 6
-67.424 -6.32207 474.289 6 6 6
-66.6698 -8.88879 474.904 8 8 8
-65.4135 -10.9669 474.927 6 6 6
-65.285 -13.7597 474.975 4 4 4
-64.35 -15.7209 476.297 5 5 5
-63.8192 -16.7557 476.48 5 5 5
-65.0469 -17.466 475.319 4 4 4
-64.7753 -17.1505 475.322 4 4 4
-65.4233 -16.4817 474.593 4 4 4
-66.784 -15.0396 474.735 5 5 5
-66.8871 -13.5285 473.616 5 5 5
-67.0335 -9.91189 473.752 5 5 5
-67.0934 -7.62221 474.731 5 5 5
-65.9462 -5.67201 475.123 5 5 5
-64.9191 -3.68672 476.285 5 5 5
-64.5125 -0.889695 476.021 4 4 4
-63.7633 1.65894 475.675 8 8 8
-65.0316 12.2034 475.534 7 7 7
-62.3633 13.5484 479.863 7 7 7
-61.4802 8.3111 479.59 9 9 9
-60.8569 5.92989 479.519 8 8 8
-60.6965 3.60961 479.003 7 7 7
-60.756 1.32798 479.446 5 5 5
-60.9498 -0.202346 479.319 4 4 4
-60.6162 -2.26473 478.575 6 6 6
-61.0551 -3.14539 478.554 6 6 6
-60.8992 -4.08932 477.648 5 5 5
-61.1739 -4.69487 478.053 5 5 5
-62.4778 -3.98153 476.556 5 5 5
-63.8541 -3.02015 475.964 4 4 4
-63.9004 -1.23845 475.009 5 5 5
-65.71 0.682971 474.073 7 7 7
-68.393 13.1665 473.46 8 8 8
-60.5853 14.2972 479.482 8 8 8
-61.3915 10.2106 479.697 9 9 9
-61.5972 8.29975 478.661 8 8 8
-61.6744 6.45182 477.73 7 7 7
-61.5845 3.75201 477.555 8 8 8
-61.0441 2.90012 477.548 8 8 8
-61.1219 2.05458 478.167 8 8 8
-61.6094 1.81038 478.576 5 5 5
-60.8519 2.59845 478.321 6 6 6
-60.4217 2.70392 480.098 6 6 6
-60.2361 3.54645 479.836 7 7 7
-53.0034 17.209 488.255 5 5 5
-51.8125 10.2926 487.695 5 5 5
-50.7643 3.65632 487.265 7 7 7
-49.9905 0.584708 487.636 6 6 6
-49.1698 -2.73291 487.93 5 5 5
-47.9493 -6.07054 488.453 3 3 3
-48.5787 -9.03157 489.999 7 7 7
-48.383 -10.843 488.867 5 5 5
-48.5676 -12.6707 488.57 7 7 7
-48.4742 -14.1764 488.783 34 34 34
-49.3441 -14.5497 488.115 56 56 56
-49.8882 -14.8221 488.128 49 49 49
-50.2881 -14.6203 487.951 51 51 51
-50.7983 -14.1887 487.23 59 59 59
-51.3006 -13.1589 486.933 13 13 13
-51.455 -11.7439 485.581 12 12 12
-52.0947 -9.66807 485.139 38 38 38
-53.8744 -5.46919 483.959 9 9 9
-54.1939 -2.05787 483.419 8 8 8
-55.236 1.07431 482.232 11 11 11
-56.3636 5.05686 482.602 9 9 9
-58.0614 11.5651 481.793 7 7 7
-56.8232 15.4627 484.312 8 8 8
-55.3135 6.47594 483.29 10 10 10
-54.2532 1.06493 484.938 7 7 7
-53.2528 -2.23971 484.675 7 7 7
-53.434 -4.54881 484.617 8 8 8
-53.2284 -9.12654 484.832 44 44 44
-54.2475 -10.8231 483.941 7 7 7
-54.5853 -12.3685 483.575 6 6 6
-55.3066 -13.6368 483.487 5 5 5
-55.6555 -15.1412 482.916 6 6 6
-55.9026 -16.4216 483.369 6 6 6
-56.6908 -17.3831 484.59 5 5 5
-55.3033 -18.1881 483.796 6 6 6
-55.1039 -18.0483 483.877 6 6 6
-55.6075 -16.5342 482.93 6 6 6
-55.7379 -15.2241 482.123 6 6 6
-55.7524 -12.6799 482.68 5 5 5
-56.5134 -9.59003 481.721 6 6 6
-57.6537 -5.1253 480.33 5 5 5
-58.0919 -1.00844 479.572 6 6 6
-60.3817 4.40111 478.337 8 8 8
-60.8408 14.6909 480.426 8 8 8
-58.7533 6.11579 480.694 8 8 8
-58.8455 5.45635 480.541 8 8 8
-59.8461 4.44949 480.447 10 10 10
-60.584 3.52493 479.126 7 7 7
-61.1255 2.23014 479.11 7 7 7
-60.6156 2.13106 479.042 7 7 7
-58.7358 4.11698 481.469 11 11 11
-56.8965 8.13253 481.989 10 10 10
-60.6308 16.9073 481.881 9 9 9
-55.652 1.3172 482.509 10 10 10
-54.9166 -1.02522 484.091 7 7 7
-54.3091 -3.91574 483.74 16 16 16
-52.6071 -9.83265 485.613 14 14 14
-51.9659 -12.206 485.516 6 6 6
-51.2466 -15.1007 486.19 6 6 6
-50.8595 -17.8293 488.385 6 6 6
-49.9195 -20.4811 489.396 7 7 7
-49.4185 -22.1389 489.218 7 7 7
-48.1274 -23.1884 490.196 8 8 8
-48.4549 -24.5051 490.383 9 9 9
-47.9228 -25.1684 491.025 8 8 8
-46.9855 -24.9928 491.041 9 9 9
-46.1553 -24.6553 492.715 8 8 8
-45.1989 -24.5838 493.314 8 8 8
-44.7304 -24.3321 493.948 9 9 9
-44.5661 -22.3987 494.007 18 18 18
-43.7644 -21.566 493.33 12 12 12
-42.8977 -19.5903 493.327 11 11 11
-43.4901 -16.5919 492.547 7 7 7
-43.6524 -13.206 491.904 6 6 6
-44.526 -9.34977 492.005 6 6 6
-45.1529 -6.37997 491.69 7 7 7
-44.818 -3.40033 491.713 4 4 4
-44.124 21.0894 496.338 1 1 1
-43.9355 9.49712 496.251 0 0 0
-43.1241 -5.61252 493.405 7 7 7
-43.9051 -8.47486 494.362 7 7 7
-43.8611 -11.133 493.26 5 5 5
-43.4179 -13.4894 492.753 6 6 6
-44.3012 -15.7979 494.004 6 6 6
-43.8016 -18.111 493.519 8 8 8
-44.0762 -21.1164 493.138 14 14 14
-44.0321 -22.1044 493.688 8 8 8
-43.6687 -23.0357 493.867 8 8 8
-44.709 -23.1426 492.688 8 8 8
-45.344 -23.1553 493.638 9 9 9
-45.4416 -22.2595 492.241 7 7 7
-45.566 -21.277 491.171 7 7 7
-45.5367 -20.7897 491.776 7 7 7
-46.0292 -19.1214 490.777 23 23 23
-46.4895 -18.8071 491.315 12 12 12
-45.5623 -17.7964 490.966 8 8 8
-44.6831 -17.0985 491.791 7 7 7
-43.9557 -15.6166 491.909 6 6 6
-44.5449 -13.3996 491.645 5 5 5
-44.6543 -10.2941 491.139 7 7 7
-45.0926 -7.67251 490.597 6 6 6
-45.7781 -4.32709 490.054 5 5 5
-46.966 -0.257893 489.251 6 6 6
-48.5895 3.06505 489.205 6 6 6
-47.5313 2.20417 489.19 6 6 6
-48.9232 -2.39382 488.971 5 5 5
-47.0704 -5.75936 488.652 4 4 4
-47.5469 -8.86718 490.85 6 6 6
-46.3103 -12.7309 490.503 6 6 6
-45.6205 -16.4014 492.49 7 7 7
-44.5801 -19.221 494.27 10 10 10
-43.5446 -21.8346 493.424 7 7 7
-43.4625 -23.7663 495.249 9 9 9
-43.5299 -25.3905 494.107 9 9 9
-44.1854 -25.689 494.032 9 9 9
-44.9731 -25.3616 493.243 8 8 8
-46.5963 -24.5969 491.887 8 8 8
-48.0593 -23.273 489.725 7 7 7
-48.878 -22.1115 489.847 8 8 8
-49.8217 -20.1658 488.258 5 5 5
-50.1747 -17.6177 487.923 7 7 7
-50.1357 -15.2806 486.629 11 11 11
-50.0142 -12.296 487.221 16 16 16
-50.3447 -9.13019 486.352 5 5 5
-50.3332 -4.74405 486.516 5 5 5
-50.6795 -0.974562 486.052 7 7 7
-51.4789 3.40727 486.38 6 6 6
-53.1063 16.3913 488.192 4 4 4
-50.4024 8.95445 488 5 5 5
-50.1537 5.37742 488.581 6 6 6
-49.4094 -1.76835 487.299 5 5 5
-49.1579 -5.23335 488.807 5 5 5
-48.8344 -9.24743 487.91 8 8 8
-49.0324 -13.0912 488.823 7 7 7
-47.8691 -16.481 489.503 20 20 20
-48.1807 -19.6214 490.483 7 7 7
-47.8067 -22.7814 491.765 8 8 8
-47.6437 -24.8571 491.092 8 8 8
-47.6184 -27.1673 491.886 8 8 8
-47.6612 -28.6125 491.989 9 9 9
-47.8458 -28.7821 492.598 9 9 9
-47.5712 -28.9887 491.348 8 8 8
-47.6658 -27.8371 490.649 8 8 8
-48.788 -25.8677 490.688 8 8 8
-48.7585 -22.5539 489.278 6 6 6
-50.1682 -18.882 488.288 5 5 5
-51.3798 -14.866 485.769 8 8 8
-53.4167 -4.26604 484.102 8 8 8
-52.5599 16.5171 488.175 2 2 2
-51.1782 10.2744 488.443 4 4 4
-50.2035 7.10272 487.87 7 7 7
-50.4974 4.69982 488.178 6 6 6
-49.2431 -0.654181 486.71 6 6 6
-50.0026 -2.99062 487.406 5 5 5
-49.7536 -5.51661 487.49 4 4 4
-49.6746 -7.68015 487.2 5 5 5
-50.5206 -11.598 487.45 7 7 7
-50.2859 -12.3921 488.026 20 20 20
-50.8805 -14.2801 487.817 22 22 22
-49.7104 -16.4835 487.749 5 5 5
-49.1075 -17.3716 489.266 5 5 5
-48.6692 -17.2459 490.041 6 6 6
-48.8484 -16.5247 488.562 31 31 31
-49.1028 -14.9356 488.971 52 52 52
-48.9047 -13.3473 488.557 7 7 7
-49.6633 -10.238 487.755 8 8 8
-49.2671 -7.01592 487.417 4 4 4
-50.217 -3.62714 486.952 5 5 5
-50.9975 0.366972 486.672 6 6 6
-50.8576 4.86619 486.378 9 9 9
-39.5243 -11.6734 497.246 7 7 7
-38.7109 -14.1685 498.129 8 8 8
-38.0953 -17.567 497.722 5 5 5
-36.973 -20.0826 498.955 7 7 7
-37.1073 -22.2979 499.878 7 7 7
-36.289 -24.1481 499.895 11 11 11
-36.7616 -25.4567 500.489 10 10 10
-36.1818 -26.23 500.876 9 9 9
-37.3117 -25.9729 500.01 9 9 9
-37.5638 -25.2906 499.263 9 9 9
-38.269 -23.6109 498.382 13 13 13
-40.029 -21.845 497.054 8 8 8
-41.1557 -18.4164 495.346 7 7 7
-43.124 -14.4735 491.954 6 6 6
-44.1501 -9.78718 491.682 7 7 7
-46.2598 -0.629276 489.977 6 6 6
-47.2691 3.95346 489.312 4 4 4
-50.8611 8.01974 488.414 5 5 5
-50.5917 5.45889 487.693 6 6 6
-49.8864 3.00989 488.609 6 6 6
-49.7379 -0.482272 487.678 6 6 6
-49.4517 -2.86787 487.345 5 5 5
-48.9198 -6.42789 487.781 5 5 5
-48.8443 -9.10392 487.488 5 5 5
-48.4332 -12.18 488.644 6 6 6
-48.3614 -15.1569 488.964 34 34 34
-48.3769 -17.425 489.86 12 12 12
-48.3776 -19.5987 490.906 6 6 6
-48.2087 -21.1486 490.309 8 8 8
-47.4671 -23.5583 491.266 9 9 9
-46.9311 -25.6435 492.043 8 8 8
-45.8496 -27.4081 493.675 8 8 8
-45.2493 -28.7985 494.346 9 9 9
-44.5641 -29.9404 495.354 8 8 8
-44.1651 -30.3039 497.34 8 8 8
-43.3519 -30.4 495.608 9 9 9
-42.8862 -29.3192 495.655 8 8 8
-42.7745 -28.144 495.956 9 9 9
-41.9264 -26.4299 496.102 9 9 9
-41.5976 -24.9449 495.946 9 9 9
-41.188 -22.6835 496.08 15 15 15
-40.8396 -20.2943 497.526 7 7 7
-40.3057 -16.8521 496.062 4 4 4
-40.9054 -12.0338 496.326 8 8 8
-40.5631 -8.00371 495.072 5 5 5
-37.1725 -11.6548 499.475 8 8 8
-36.3047 -13.6491 500.18 8 8 8
-36.1138 -16.1555 500.529 7 7 7
-35.3834 -18.7553 500.79 5 5 5
-34.7039 -22.3458 502.941 8 8 8
-34.2748 -24.2323 502.555 7 7 7
-33.2242 -26.8323 503.874 7 7 7
-32.3525 -29.1873 505.689 8 8 8
-31.7277 -31.5085 507.171 7 7 7
-31.0491 -33.9626 509.288 8 8 8
-30.1726 -36.2858 509.96 8 8 8
-29.1115 -38.5459 511.724 9 9 9
-28.79 -39.8861 512.716 8 8 8
-28.6536 -40.1805 512.497 8 8 8
-30.2817 -37.9609 509.205 8 8 8
-31.6111 -35.3965 507.321 8 8 8
-33.1031 -32.2269 503.881 8 8 8
-35.2298 -28.134 501.41 9 9 9
-36.7181 -23.9119 498.702 15 15 15
-38.9944 -20.0811 497.262 6 6 6
-39.663 -15.4951 495.372 5 5 5
-40.5474 -11.7783 495.265 5 5 5
-41.2026 -8.56472 494.694 6 6 6
-44.7533 -3.10053 491.971 6 6 6
-45.3298 -5.04701 491.59 6 6 6
-45.7625 -7.01525 490.65 6 6 6
-46.0403 -11.2949 490.147 5 5 5
-46.2004 -13.9105 490.18 6 6 6
-46.5559 -16.908 492.288 7 7 7
-44.949 -18.5439 492.628 20 20 20
-45.487 -20.7033 492.97 16 16 16
-44.7224 -23.4616 493.417 9 9 9
-44.11 -25.0737 494.27 9 9 9
-43.666 -26.578 493.995 9 9 9
-43.9887 -27.5567 495.649 9 9 9
-43.8881 -27.7425 494.969 9 9 9
-43.5688 -27.5637 495.203 8 8 8
-43.4442 -27.3748 494.619 9 9 9
-44.0572 -26.4712 494.94 8 8 8
-43.9038 -24.7947 493.884 8 8 8
-44.1079 -22.3593 493.221 10 10 10
-44.085 -20.1301 493.475 11 11 11
-44.1824 -17.2435 491.923 7 7 7
-44.6335 -13.8253 492.38 5 5 5
-44.5031 -9.65214 491.377 6 6 6
-44.7532 -5.59514 491.164 6 6 6
-44.6817 -2.75615 491.806 6 6 6
-44.4966 -4.98789 492.285 6 6 6
-45.2227 -6.41713 492.3 6 6 6
-44.9123 -8.49646 491.403 6 6 6
-44.7629 -9.91155 491.521 6 6 6
-44.824 -11.2169 490.954 6 6 6
-45.1549 -11.9941 491.863 5 5 5
-45.3835 -11.8088 491.683 4 4 4
-45.7542 -12.4603 491.729 6 6 6
-44.8962 -12.0152 491.567 6 6 6
-44.1278 -10.5361 490.755 6 6 6
-44.134 -9.14314 491.84 6 6 6
-44.266 -5.85119 492.283 6 6 6
-45.163 -3.45442 492.394 4 4 4
-50.7537 8.24066 488.278 5 5 5
-49.402 1.88516 487.408 7 7 7
-50.1968 -1.24472 487.709 5 5 5
-49.0254 -4.35759 487.972 5 5 5
-49.0571 -7.89702 487.928 5 5 5
-48.5447 -11.4376 488.807 5 5 5
-48.0702 -13.6646 489.108 6 6 6
-46.9187 -17.0257 490.759 8 8 8
-47.0862 -19.1161 490.634 10 10 10
-45.9265 -21.8705 491.101 8 8 8
-46.9807 -22.3782 491.717 8 8 8
-46.6192 -24.0353 493.574 8 8 8
-45.8287 -24.7485 493.027 9 9 9
-46.0312 -25.7596 492.783 9 9 9
-45.3907 -25.1742 494.236 9 9 9
-45.5001 -25.0012 493.127 8 8 8
-44.7229 -24.6914 491.584 8 8 8
-46.4271 -22.3527 491.813 8 8 8
-46.9391 -20.0958 490.824 6 6 6
-48.2125 -16.779 488.601 18 18 18
-51.5156 -10.0581 486.34 16 16 16
-51.8514 -8.29983 485.455 7 7 7
-51.9684 -6.88591 485.632 8 8 8
-51.8937 -6.60969 485.979 5 5 5
-50.3746 -7.28313 487.586 4 4 4
-48.9291 -8.39413 488.437 4 4 4
-47.9712 -9.34271 489.484 6 6 6
-46.2709 -10.6926 491.072 6 6 6
-46.4194 -11.4648 490.728 6 6 6
-45.4034 -13.1399 490.904 6 6 6
-44.5644 -14.1964 492.278 6 6 6
-44.5564 -15.8071 492.283 7 7 7
-44.1674 -16.9397 492.623 7 7 7
-44.1623 -18.4396 492.339 11 11 11
-43.9912 -19.8191 493.763 10 10 10
-43.7107 -21.4414 495.393 13 13 13
-42.4866 -23.4329 495.736 8 8 8
-42.0267 -25.1888 496.517 9 9 9
-41.7379 -26.7244 498.42 9 9 9
-40.6378 -27.9789 498.222 9 9 9
-40.2167 -28.8826 498.928 8 8 8
-39.8442 -29.9781 499.193 8 8 8
-39.6516 -30.9061 500.022 9 9 9
-39.3972 -31.9049 500.027 8 8 8
-39.782 -32.2557 500.403 9 9 9
-40.0868 -32.5042 499.33 8 8 8
-40.8155 -33.0186 500.37 8 8 8
-40.0332 -33.1657 499.837 8 8 8
-40.6415 -33.9396 500.829 9 9 9
-39.9896 -34.4167 500.403 8 8 8
-39.8649 -35.6037 501.554 8 8 8
-39.6085 -36.0283 501.263 8 8 8
-39.2269 -36.7314 501.941 9 9 9
-38.5943 -37.286 502.742 9 9 9
-38.1578 -36.7499 502.347 8 8 8
-38.8571 -35.6145 502.915 18 18 18
-38.9008 -35.4811 502.078 7 7 7
-38.9739 -34.1682 501.371 9 9 9
-39.5572 -32.4878 499.658 8 8 8
-40.9441 -30.3324 497.752 9 9 9
-42.2545 -28.0403 495.77 8 8 8
-43.9891 -25.8021 493.79 9 9 9
-45.2421 -23.1604 491.584 8 8 8
-46.9545 -20.7672 489.679 7 7 7
-48.7843 -18.3804 488.548 6 6 6
-49.7931 -16.5296 487.661 8 8 8
-50.8376 -15.0048 487.865 26 26 26
-51.1256 -13.2732 485.446 11 11 11
-52.4555 -12.3047 485.806 28 28 28
-52.5819 -11.7651 486.017 43 43 43
-51.8153 -11.9454 485.596 54 54 54
-50.9791 -12.6897 486.287 24 24 24
-51.1875 -12.9944 487.632 12 12 12
-51.2393 -13.3582 487.478 9 9 9
-50.6499 -13.7021 487.559 14 14 14
-50.8152 -14.1005 486.594 9 9 9
-52.1132 -13.4639 486.06 37 37 37
-52.7196 -12.6114 485.227 7 7 7
-53.5797 -12.3822 484.619 6 6 6
-54.5878 -11.4492 484.263 7 7 7
-56.3399 -9.60834 482.253 6 6 6
-57.5592 -9.414 481.98 6 6 6
-57.5387 -9.0731 481.748 6 6 6
-58.4675 -9.01196 480.384 6 6 6
-58.8028 -8.42876 480.22 6 6 6
-58.9879 -7.75577 479.462 6 6 6
-61.3228 -5.43596 478.275 6 6 6
-62.5402 -4.22362 477.271 6 6 6
-62.8186 -3.10713 475.798 5 5 5
-65.071 -1.81764 475.773 5 5 5
-66.4572 0.41408 473.505 5 5 5
-69.3686 5.82985 470.585 8 8 8
-71.9436 8.02936 470.059 9 9 9
-76.4416 7.60233 466.141 12 12 12
-71.8782 -0.23437 470.378 5 5 5
-66.9944 -6.23408 474.72 5 5 5
-65.1159 -8.81626 475.05 6 6 6
-64.0056 -11.3965 476.818 6 6 6
-62.9673 -13.2941 477.829 5 5 5
-62.0737 -14.8342 478.034 5 5 5
-62.6112 -15.6526 477.931 5 5 5
-61.2404 -16.0098 478.931 5 5 5
-60.2298 -16.7472 478.208 5 5 5
-61.6615 -16.8703 479.389 5 5 5
-60.4976 -17.1016 479.269 5 5 5
-59.5645 -18.1867 480.657 6 6 6
-59.1854 -18.835 480.778 5 5 5
-58.8826 -19.5751 481.076 5 5 5
-59.25 -19.9546 481.395 6 6 6
-59.0518 -19.9424 481.972 5 5 5
-57.3197 -21.1033 482.656 6 6 6
-56.7407 -22.4694 482.694 6 6 6
-55.6088 -23.7659 484.732 7 7 7
-55.0746 -25.0268 485.348 7 7 7
-53.5522 -25.6958 486.552 8 8 8
-52.0987 -26.9735 487.529 8 8 8
-50.9999 -27.764 488.878 8 8 8
-49.6337 -28.4123 490.107 8 8 8
-48.8844 -27.9698 490.548 9 9 9
-48.8799 -27.5031 489.786 8 8 8
-49.4582 -26.165 489.194 8 8 8
-50.5006 -24.1013 488.651 8 8 8
-51.2173 -21.672 486.939 7 7 7
-52.3628 -18.2946 484.825 6 6 6
-55.752 -14.0412 481.883 6 6 6
-58.8602 -9.72194 478.996 6 6 6
-61.7978 -4.32493 476.693 6 6 6
-65.4678 0.479284 473.269 8 8 8
-68.9286 5.86654 470.152 10 10 10
-60.2663 2.68448 480.883 7 7 7
-55.95 -2.21668 483.11 12 12 12
-54.0849 -5.03615 484.198 8 8 8
-50.4147 -9.81586 488.508 10 10 10
-49.4855 -11.3944 488.738 6 6 6
-48.2873 -12.7981 488.377 6 6 6
-47.9442 -14.1152 488.687 10 10 10
-48.0107 -13.6987 488.367 8 8 8
-49.4084 -12.8861 487.619 7 7 7
-52.3552 -9.60351 484.537 8 8 8
-53.1405 -7.78066 483.563 36 36 36
-55.736 -5.95323 482.737 7 7 7
-57.7707 -2.95331 480.466 5 5 5
-59.4753 -0.942289 480.383 5 5 5
-59.8349 0.766742 479.251 7 7 7
-59.9318 1.33788 478.708 6 6 6
-60.3951 2.27176 479.407 7 7 7
-59.9427 2.64251 479.559 7 7 7
-60.4963 2.09734 481.138 10 10 10
-58.6455 2.97216 480.999 7 7 7
-58.8049 2.87404 480.834 9 9 9
-56.3476 0.980152 482.649 11 11 11
-54.8662 -0.563178 483.789 8 8 8
-52.7363 -2.21642 486 5 5 5
-50.8124 -3.69997 486.969 5 5 5
-49.3704 -4.85633 487.557 5 5 5
-47.5097 -5.71757 489.414 6 6 6
-47.0802 -6.32389 489.908 6 6 6
-45.9004 -6.89938 491.133 6 6 6
-45.8758 -7.54213 491.362 6 6 6
-45.2115 -6.97382 491.501 6 6 6
-45.2235 -6.84966 491.295 6 6 6
-45.3928 -6.87668 491.779 6 6 6
-45.2049 -6.88441 492.293 6 6 6
-44.1279 -8.13722 492.961 7 7 7
-43.0431 -8.87147 494.282 5 5 5
-42.3573 -10.1885 494.747 6 6 6
-40.7058 -11.107 495.991 8 8 8
-40.6691 -11.116 496.021 7 7 7
-40.9075 -11.3362 496.367 8 8 8
-40.3109 -10.9872 495.074 6 6 6
-41.3455 -10.3067 494.664 7 7 7
-41.6779 -10.1697 494.304 5 5 5
-42.3796 -10.3132 493.383 5 5 5
-42.8314 -9.72418 493.562 6 6 6
-44.2352 -9.31719 492.567 6 6 6
-44.2063 -8.78334 491.35 6 6 6
-44.779 -7.98372 490.584 5 5 5
-46.0374 -7.83328 490.855 6 6 6
-46.6265 -7.35772 490.389 5 5 5
-47.1215 -6.44172 489.652 6 6 6
-47.5031 -6.40132 488.208 4 4 4
-48.2215 -6.03426 488.514 4 4 4
-47.8463 -6.16892 488.25 4 4 4
-48.4073 -5.31401 488.052 5 5 5
-48.4419 -5.1805 487.868 5 5 5
-49.7981 -4.57927 487.803 4 4 4
-49.2103 -3.65139 487.26 5 5 5
-50.196 -3.34961 487.416 5 5 5
-49.6052 -3.0494 487.801 5 5 5
-49.7531 -2.46715 487.477 5 5 5
-50.0149 -2.47875 488.028 6 6 6
-49.3857 -2.67341 488.322 6 6 6
-48.5504 -2.71288 488.929 5 5 5
-48.5203 -2.90094 489.588 5 5 5
-47.8927 -2.85248 488.725 5 5 5
-47.5439 -2.14464 489.26 6 6 6
-48.0288 -1.78504 489.911 5 5 5
-48.0324 -1.19628 489.4 6 6 6
-47.9439 -0.819381 488.965 6 6 6
-48.014 -0.190747 488.479 6 6 6
-48.9965 0.559919 488.933 6 6 6
-48.596 1.61428 488.722 6 6 6
-49.3962 2.6886 487.787 7 7 7
-49.4553 3.23966 487.228 7 7 7
-50.1552 4.23261 486.842 8 8 8
-50.9116 5.29813 486.91 7 7 7
-51.7718 6.33009 486.718 7 7 7
-52.0032 7.23271 487.008 6 6 6
-52.0244 8.18075 487.017 5 5 5
-53.7644 14.4506 486.898 7 7 7
-54.2956 15.3784 485.998 8 8 8
-55.2777 16.8691 485.56 8 8 8
-52.8121 14.6751 487.815 7 7 7
-52.793 14.4641 488.305 3 3 3
-31.0917 -19.4525 505.557 6 6 6
-28.9488 -23.8744 507.669 7 7 7
-27.5994 -26.592 510.368 9 9 9
-26.0534 -30.2388 511.653 9 9 9
-25.7403 -33.3586 513.498 8 8 8
-25.6766 -35.4687 513.735 8 8 8
-26.055 -36.9881 513.209 6 6 6
-27.298 -37.881 512.16 6 6 6
-28.1228 -38.8074 511.329 9 9 9
-29.7105 -39.2909 509.94 9 9 9
-31.5577 -41.391 509.791 12 12 12
-31.5035 -42.5254 510.957 11 11 11
-31.3037 -43.9473 512.214 8 8 8
-35.7946 -39.0294 505.095 22 22 22
-37.8818 -35.444 499.965 9 9 9
-40.7935 -32.5774 497.86 8 8 8
-43.0306 -28.1822 494.877 8 8 8
-45.0593 -24.8624 492.271 9 9 9
-48.4266 -20.7141 490.28 7 7 7
-49.5456 -16.8293 487.765 7 7 7
-52.7852 -8.07384 484.753 8 8 8
-54.9367 4.669 483.461 9 9 9
-55.3926 15.2522 484.755 8 8 8
-59.046 15.2705 482.281 8 8 8
-57.108 11.3241 483.799 8 8 8
-55.9022 8.66669 483.97 9 9 9
-51.38 -0.0312665 486.907 7 7 7
-50.2363 -3.09603 487.478 5 5 5
-48.9268 -6.61601 487.843 4 4 4
-47.7552 -8.77762 489.315 4 4 4
-47.1268 -12.4379 491.076 6 6 6
-45.0981 -15.2687 492.046 7 7 7
-43.7743 -18.6158 493.575 9 9 9
-42.4692 -21.2046 496.136 16 16 16
-40.946 -24.1293 497.347 10 10 10
-39.5477 -26.7685 498.253 9 9 9
-38.9766 -28.3895 499.946 9 9 9
-38.4932 -29.6858 500.68 8 8 8
-38.482 -30.8944 501.047 9 9 9
-38.5851 -32.3092 501.347 8 8 8
-37.6182 -33.4752 502.99 10 10 10
-36.696 -36.2149 504.573 8 8 8
-35.8448 -37.3192 505.388 9 9 9
-35.694 -38.1586 506.06 8 8 8
-35.464 -38.65 506.081 9 9 9
-34.8584 -38.5982 506.463 8 8 8
-35.0465 -38.4126 505.631 9 9 9
-34.9331 -37.5256 505.118 9 9 9
-35.9462 -36.0159 503.753 11 11 11
-36.3411 -34.7788 502.504 8 8 8
-37.5258 -31.9212 500.997 9 9 9
-39.2553 -29.0247 499.193 9 9 9
-40.4054 -26.0108 497.167 8 8 8
-42.4441 -23.6326 494.77 8 8 8
-43.3229 -19.8772 492.638 7 7 7
-46.4517 -17.6642 490.231 15 15 15
-48.2821 -13.7896 488.38 10 10 10
-50.2241 -9.9841 486.735 7 7 7
-51.4804 -6.71422 483.888 18 18 18
-53.1681 -3.64643 483.885 9 9 9
-54.067 -1.556 483.316 8 8 8
-54.6287 -0.0464372 483.896 8 8 8
-55.2612 0.759952 483.246 8 8 8
-54.2323 1.08271 484.03 8 8 8
-54.1396 1.54093 483.46 8 8 8
-54.4018 1.7919 483.367 8 8 8
-55.1738 2.27658 483.417 8 8 8
-56.8658 2.54103 482.43 10 10 10
-58.4055 3.73525 480.907 9 9 9
-60.4282 4.00845 479.398 7 7 7
-60.9407 4.17603 478.755 8 8 8
-61.347 4.10299 477.171 7 7 7
-62.6073 4.03208 477.71 8 8 8
-61.6214 2.39399 477.495 7 7 7
-62.128 1.62264 478.494 6 6 6
-61.3935 -0.237586 479.021 5 5 5
-60.5996 -2.52216 478.705 6 6 6
-58.5813 -6.54073 481.361 6 6 6
-56.999 -11.3265 482.722 6 6 6
-55.3544 -14.4047 483.617 6 6 6
-54.2965 -17.8554 485.569 6 6 6
-53.0615 -20.7274 486.308 6 6 6
-52.4154 -22.7603 487.73 7 7 7
-50.9119 -24.6239 489.269 8 8 8
-50.6207 -26.8347 489.836 8 8 8
-51.3161 -28.6203 489.046 9 9 9
-50.8333 -30.535 490.641 8 8 8
-50.1555 -32.7272 492.022 8 8 8
-49.2851 -34.237 493.524 7 7 7
-47.9989 -36.2227 494.736 8 8 8
-47.7206 -37.9932 495.608 8 8 8
-45.7333 -39.829 497.933 9 9 9
-44.4706 -41.7618 499.46 9 9 9
-33.9007 -43.8588 508.123 10 10 10
-33.9221 -40.1378 507.41 9 9 9
-35.3345 -38.0432 505.92 9 9 9
-35.4116 -36.1974 504.775 9 9 9
-36.5698 -34.1493 503.017 10 10 10
-36.7943 -31.8034 501.905 9 9 9
-37.9928 -29.205 500.517 8 8 8
-39.2286 -27.4211 498.376 9 9 9
-39.5547 -25.384 497.022 9 9 9
-41.5451 -22.1145 495.235 21 21 21
-44.0293 -18.7286 492.08 7 7 7
-45.8862 -15.7221 489.305 6 6 6
-48.3506 -11.955 488.448 9 9 9
-50.6108 -8.25452 485.199 22 22 22
-53.0489 -3.77817 483.638 8 8 8
-59.514 9.15008 480.185 12 12 12
-60.3036 13.3278 481.681 8 8 8
-53.5004 15.2535 488.045 4 4 4
-49.6549 7.24942 489.48 0 0 0
-48.5841 3.25639 489.109 6 6 6
-48.2754 0.0107521 489.383 6 6 6
-47.2451 -4.3864 490.074 6 6 6
-45.8552 -8.92438 491.319 4 4 4
-44.8007 -14.6012 491.815 7 7 7
-43.4448 -19.7694 494.435 8 8 8
-42.5614 -24.5263 495.539 9 9 9
-42.4546 -28.8972 497.389 8 8 8
-42.3785 -32.81 497.422 8 8 8
-43.9747 -35.5773 498.772 8 8 8
-44.9323 -37.9845 497.237 8 8 8
-46.8091 -40.0387 495.939 8 8 8
-69.3585 -38.5766 474.677 26 26 26
-70.8249 -37.3653 472.209 17 17 17
-72.0802 -35.545 469.415 8 8 8
-74.3381 -33.9904 468.059 8 8 8
-74.7729 -32.8331 468.011 8 8 8
-75.3157 -31.422 468.384 6 6 6
-73.2516 -31.9176 468.281 7 7 7
-73.8934 -30.9498 467.6 7 7 7
-72.8818 -30.0494 468.422 6 6 6
-72.9638 -29.4427 469.456 6 6 6
-72.9728 -27.9835 468.686 6 6 6
-72.7563 -26.9633 468.721 5 5 5
-73.5135 -25.3441 468.138 5 5 5
-73.3389 -23.6332 468.444 5 5 5
-73.3191 -22.7786 468.209 5 5 5
-73.7128 -21.3557 467.633 4 4 4
-73.7159 -20.2381 467.931 4 4 4
-73.0238 -20.0202 468.243 4 4 4
-73.0225 -19.7785 468.846 4 4 4
-71.6356 -19.5833 469.001 4 4 4
-71.2513 -19.7097 470.771 4 4 4
-71.6334 -19.8614 469.734 4 4 4
-72.0299 -19.3168 469.882 4 4 4
-71.4055 -18.6512 469.277 4 4 4
-71.4974 -18.1448 468.632 4 4 4
-72.7642 -17.6138 469.03 4 4 4
-73.3861 -16.3156 467.81 4 4 4
-74.7145 -15.4796 467.785 4 4 4
-74.4699 -15.5593 467.991 4 4 4
-73.0765 -16.8236 468.951 4 4 4
-72.0268 -17.2723 469.937 4 4 4
-71.3026 -17.9489 471.997 4 4 4
-69.6209 -18.6113 472.402 4 4 4
-68.8124 -18.8453 472.521 4 4 4
-67.6117 -19.4563 472.758 4 4 4
-68.0307 -19.5131 473.713 5 5 5
-68.0084 -19.7809 473.697 5 5 5
-66.8918 -20.3879 474.438 4 4 4
-66.1468 -21.0668 473.988 5 5 5
-65.2038 -21.4742 475.21 4 4 4
-64.6538 -22.3253 476.553 5 5 5
-63.5438 -22.9633 478.026 5 5 5
-63.9795 -23.3476 477.572 5 5 5
-62.4235 -24.6479 478.386 6 6 6
-61.3407 -25.3294 479.291 6 6 6
-61.1779 -25.8091 479 6 6 6
-60.4308 -26.1839 479.298 6 6 6
-60.9689 -26.0041 479.597 6 6 6
-60.8001 -26.6788 480.672 7 7 7
-61.2985 -26.8419 480.038 7 7 7
-60.5938 -28.1012 480.827 7 7 7
-60.3032 -29.4912 482.821 8 8 8
-58.6304 -31.2411 483.194 7 7 7
-57.4242 -33.1166 484.358 7 7 7
-57.0041 -35.0054 486.06 7 7 7
-55.9606 -37.0121 486.964 8 8 8
-55.5655 -38.9696 489.008 11 11 11
-54.8135 -46.4002 493.765 30 30 30
-62.3376 -46.7842 487.874 15 15 15
-60.6595 15.7339 481.402 9 9 9
-55.0641 7.65665 484.493 9 9 9
-53.6924 5.53326 485.08 8 8 8
-52.673 3.52061 486.173 8 8 8
-51.1861 0.934444 486.6 6 6 6
-51.1275 -0.467881 487.338 5 5 5
-50.0038 -2.91807 487.175 5 5 5
-49.9959 -4.09322 486.988 5 5 5
-50.0908 -4.75036 487.064 4 4 4
-49.6226 -5.47155 486.591 4 4 4
-50.9029 -5.17954 486.184 4 4 4
-51.2107 -4.54378 485.807 5 5 5
-50.8209 -3.79196 485.207 6 6 6
-51.9373 -2.46964 485.808 5 5 5
-53.1559 -0.771606 484.897 6 6 6
-53.6888 3.93479 484.183 10 10 10
-53.9101 5.28078 484.391 9 9 9
-52.7682 7.31694 486.537 6 6 6
-51.5861 7.12368 487.307 5 5 5
-49.8816 7.11525 487.959 4 4 4
-48.2892 4.26123 489.106 5 5 5
-48.9103 3.91785 488.646 6 6 6
-49.3196 3.347 487.666 7 7 7
-50.2623 2.89643 487.706 7 7 7
-50.1891 1.13891 486.216 7 7 7
-51.4049 -1.4638 486.362 6 6 6
-51.07 -2.44054 485.933 5 5 5
-51.045 -3.57176 486.581 5 5 5
-51.2569 -5.6524 487.069 4 4 4
-50.895 -6.27478 487.129 5 5 5
-50.1706 -6.09155 486.603 5 5 5
-49.5904 -7.14521 485.493 6 6 6
-51.3213 -7.03437 486.09 4 4 4
-51.1676 -6.54033 485.154 7 7 7
-52.5291 -6.47752 484.947 7 7 7
-52.4349 -6.51894 484.096 16 16 16
-56.0461 -4.00083 482.109 8 8 8
-57.3619 -3.3822 481.332 6 6 6
-57.3936 -3.50408 481.756 8 8 8
-57.4803 -2.82958 481.537 8 8 8
-57.173 -2.45015 481.386 5 5 5
-57.3208 -2.28718 482.148 8 8 8
-56.596 -1.3136 482.276 11 11 11
-58.0114 2.54584 480.611 8 8 8
-58.0598 4.05644 479.702 6 6 6
-60.3941 6.14076 479.487 8 8 8
-61.0698 7.12033 478.889 8 8 8
-62.3133 8.98199 478.182 8 8 8
-63.646 10.1769 477.098 8 8 8
-66.038 12.8484 475.11 5 5 5
-68.7924 15.2946 473.025 11 11 11
-70.9324 17.699 470.912 14 14 14
-65.2164 14.4744 477.754 7 7 7
-62.6528 12.5588 479.345 8 8 8
-60.5514 5.49948 479.314 8 8 8
-60.847 5.35752 478.084 9 9 9
-61.4815 4.24396 477.456 8 8 8
-61.4199 2.54051 477.934 7 7 7
-61.6155 1.13889 479.13 4 4 4
-59.4242 -4.1807 481.591 7 7 7
-57.4041 -6.37507 482.454 6 6 6
-55.8798 -8.29027 483.354 6 6 6
-54.5049 -10.0953 484.706 7 7 7
-52.8208 -12.9509 485.329 6 6 6
-51.442 -14.7944 486.96 6 6 6
-50.3539 -16.7354 488.194 5 5 5
-49.744 -18.2375 487.94 6 6 6
-49.6128 -19.1025 489.01 5 5 5
-49.5146 -19.4407 489.256 6 6 6
-49.4562 -19.4394 488.846 6 6 6
-49.5127 -19.0389 488.725 5 5 5
-50.0355 -18.4624 488.483 5 5 5
-49.2652 -18.4692 488.047 6 6 6
-49.3723 -17.6674 489.453 6 6 6
-48.4332 -17.6789 488.967 6 6 6
-47.646 -17.6283 490.082 13 13 13
-46.4897 -16.9855 490.003 20 20 20
-45.4078 -17.0619 490.668 7 7 7
-45.3949 -16.5407 491.554 7 7 7
-44.088 -16.5449 493.059 7 7 7
-43.6189 -15.1282 493.02 6 6 6
-42.8698 -15.8933 493.2 7 7 7
-42.1019 -15.6841 494.029 6 6 6
-41.35 -14.7069 495.162 5 5 5
-40.6251 -15.6241 496.39 4 4 4
-39.768 -15.2815 495.93 4 4 4
-39.8362 -14.8054 496.716 5 5 5
-39.702 -14.5916 496.518 5 5 5
-40.3223 -13.906 495.682 5 5 5
-40.8348 -12.5345 494.402 6 6 6
-42.0827 -11.2542 492.774 5 5 5
-44.1628 -9.94741 491.435 6 6 6
-46.8636 -8.47646 488.367 5 5 5
-49.2785 -6.37129 486.477 6 6 6
-53.008 -3.6422 483.95 9 9 9
-56.0398 -2.23723 481.125 5 5 5
-59.4016 0.577002 478.032 6 6 6
-63.6148 1.9283 476.265 6 6 6
-66.1385 3.76547 473.448 8 8 8
-73.3256 4.882 468.872 9 9 9
-72.9576 2.8384 468.856 7 7 7
-71.8245 0.700925 468.549 6 6 6
-73.4835 0.631142 467.542 7 7 7
-74.7086 0.960143 466.342 8 8 8
-75.6733 0.862556 465.368 11 11 11
-76.6047 0.614277 463.994 13 13 13
-79.8051 1.757 461.983 16 16 16
-57.6363 15.0723 483.193 7 7 7
-52.5736 6.39639 485.938 8 8 8
-54.4115 0.0185868 483.432 8 8 8
-55.7967 -3.70863 482.389 6 6 6
-55.7458 -5.55742 482.472 7 7 7
-57.2361 -7.27967 482.132 5 5 5
-57.0316 -9.0585 480.412 6 6 6
-60.7156 -11.4073 478.059 6 6 6
-62.5837 -11.9679 476.586 5 5 5
-65.6452 -12.4785 474.412 5 5 5
-67.7399 -12.0498 472.313 5 5 5
-70.0438 -10.5384 470.001 5 5 5
-70.9146 -10.5942 468.913 5 5 5
-71.3649 -10.7006 469.26 4 4 4
-72.5003 -9.37605 469.719 5 5 5
-72.8878 -8.48686 468.81 6 6 6
-72.5357 -7.86476 468.774 5 5 5
-72.74 -7.58615 468.107 5 5 5
-73.2465 -6.20522 467.685 5 5 5
-73.6472 -5.19864 467.958 5 5 5
-73.5745 -4.45447 467.938 4 4 4
-74.1035 -3.9128 468.199 5 5 5
-73.481 -3.82653 468.336 5 5 5
-72.5947 -3.58242 468.59 5 5 5
-72.0439 -3.99447 470.321 5 5 5
-70.397 -4.58939 471.343 5 5 5
-68.7397 -5.44661 472.462 5 5 5
-65.623 -7.10735 474.753 6 6 6
-63.933 -8.4318 476.138 6 6 6
-61.9562 -10.3376 478.111 6 6 6
-59.5361 -11.9262 480.395 5 5 5
-57.8387 -13.8867 482.188 6 6 6
-55.729 -15.6311 484.411 6 6 6
-53.9979 -17.6872 485.502 5 5 5
-51.3922 -19.8627 487.284 7 7 7
-49.3124 -22.2491 489.921 8 8 8
-46.8775 -24.6421 492.111 9 9 9
-44.6597 -26.9354 495.263 9 9 9
-43.1306 -28.6358 496.535 9 9 9
-42.9665 -30.7977 497.24 8 8 8
-41.4908 -32.341 497.844 9 9 9
-41.709 -33.4641 498.31 8 8 8
-42.6473 -34.0106 497.766 7 7 7
-43.758 -34.3111 495.45 8 8 8
-45.488 -34.7236 494.88 7 7 7
-47.2117 -34.4121 493.763 7 7 7
-47.7286 -34.5038 492.604 7 7 7
-49.3979 -34.5909 492.975 8 8 8
-48.742 -34.292 492.523 8 8 8
-47.8259 -34.5606 493.923 8 8 8
-46.7426 -34.6192 495.515 8 8 8
-44.3806 -34.8853 497.619 8 8 8
-42.3796 -35.8699 500.412 8 8 8
-38.9616 -37.2165 502.288 8 8 8
-37.5115 -37.482 504.99 8 8 8
-34.9778 -39.1614 507.342 9 9 9
-33.4906 -40.2907 508.498 8 8 8
-31.6634 -41.8685 510.196 13 13 13
-30.4826 -43.5457 511.659 10 10 10
-30.0097 -44.1886 512.261 13 13 13
-30.8124 -46.6714 512.836 22 22 22
-32.0213 -53.4962 516.579 97 97 97
-32.0095 -53.7843 516.093 85 85 85
-32.7267 -53.2122 514.306 33 33 33
-33.8783 -52.7437 513.95 33 33 33
-34.6337 -51.4543 512.021 15 15 15
-37.8238 -42.6718 505.599 9 9 9
-36.9107 -40.7632 504.906 14 14 14
-36.4903 -39.4583 504.777 13 13 13
-35.4972 -37.8704 504.665 11 11 11
-35.6941 -35.8842 505.431 9 9 9
-35.1954 -34.2412 504.472 10 10 10
-34.6336 -32.3872 502.784 9 9 9
-35.1649 -29.6834 502.985 8 8 8
-35.4498 -27.6207 500.866 9 9 9
-36.185 -25.3593 501.386 10 10 10
-35.5624 -23.0897 500.592 7 7 7
-34.9516 -22.7436 501.281 8 8 8
-35.3321 -22.3343 502.27 9 9 9
-34.0186 -22.2185 501.496 8 8 8
-34.4764 -21.9277 500.772 7 7 7
-34.4551 -22.3549 501.475 8 8 8
-35.2844 -23.2753 501.324 8 8 8
-36.3971 -24.3514 500.142 9 9 9
-38.8714 -25.862 498.513 9 9 9
-39.3365 -27.3239 498.011 9 9 9
-42.4248 -28.7946 496.38 8 8 8
-44.9584 -29.2686 493.478 8 8 8
-47.5504 -30.0236 491.858 9 9 9
-49.8969 -31.1222 489.974 9 9 9
-51.1825 -32.6349 488.381 8 8 8
-52.73 -33.3357 487.722 8 8 8
-54.3141 -35.6853 488.079 8 8 8
-54.8056 -37.5925 488.463 9 9 9
-54.6706 -39.4427 488.883 17 17 17
-55.2304 -48.7253 494.758 10 10 10
-55.27 -51.1157 494.948 113 113 113
-56.7327 -52.5683 493.787 119 119 119
-63.6248 -57.9808 489.233 175 175 175
-64.6997 -58.4722 488.153 15 15 15
-65.9597 -58.4956 486.045 9 9 9
-66.8689 -59.3072 484.625 10 10 10
-68.2017 -59.4908 484.58 10 10 10
-69.1023 -59.3202 483.075 9 9 9
-69.7545 -58.2457 483.332 9 9 9
-70.1801 -56.7031 480.264 9 9 9
-71.843 -54.5538 479.564 8 8 8
-72.4742 -51.9352 478.322 9 9 9
-73.5346 -49.1285 477.9 11 11 11
-77.1103 -12.341 464.589 5 5 5
-76.552 -10.6568 464.819 5 5 5
-75.9644 -8.38779 465.578 5 5 5
-74.9701 -6.34707 466.925 5 5 5
-74.1668 -4.97461 467.48 5 5 5
-73.0177 -3.18339 467.062 6 6 6
-73.8703 -1.76378 467.178 6 6 6
-74.2403 0.284791 467.656 6 6 6
-73.3881 1.35098 468.065 8 8 8
-73.3259 2.69242 467.922 9 9 9
-71.5777 2.57933 469.569 6 6 6
-70.4627 1.51465 470.939 6 6 6
-69.1754 0.423623 472.521 4 4 4
-68.0679 -1.07581 474.162 5 5 5
-66.4712 -2.4136 473.918 5 5 5
-65.7368 -3.78944 475.704 6 6 6
-64.8166 -5.41676 476.415 5 5 5
-64.0014 -8.14417 476.823 6 6 6
-62.2814 -12.3612 478.325 5 5 5
-61.7591 -14.8936 478.622 4 4 4
-61.2086 -17.1271 478.572 5 5 5
-60.8935 -19.2636 479.017 4 4 4
-61.2961 -20.749 478.594 5 5 5
-61.4177 -22.0968 478.3 5 5 5
-62.1102 -22.7882 478.171 4 4 4
-62.799 -23.6966 478.083 5 5 5
-62.8303 -24.7879 477.023 5 5 5
-63.7177 -24.4706 476.638 5 5 5
-63.3521 -25.1133 475.819 6 6 6
-64.8959 -24.9122 475.364 6 6 6
-64.3948 -25.4549 475.804 6 6 6
-64.4154 -25.9787 476.647 6 6 6
-64.652 -25.5804 476.29 6 6 6
-63.8231 -25.3748 477.38 5 5 5
-63.5844 -24.7594 477.756 6 6 6
-63.4665 -24.1386 478.287 5 5 5
-63.2422 -22.2279 478.242 4 4 4
-63.7789 -20.7552 476.255 5 5 5
-63.4462 -18.9798 476.8 4 4 4
-64.3724 -16.8192 475.415 5 5 5
-64.4792 -14.2922 476.203 4 4 4
-67.0087 -8.8319 473.721 5 5 5
-67.5769 -5.49615 471.943 4 4 4
-68.1714 -2.77321 469.963 5 5 5
-70.5726 0.242207 468.982 7 7 7
-72.1167 3.73834 468.592 9 9 9
-73.0981 15.1265 468.772 12 12 12
-69.4494 13.6181 472.387 5 5 5
-69.8685 12.3385 472.084 9 9 9
-69.4019 11.2375 471.813 9 9 9
-70.6795 5.40238 470.14 8 8 8
-70.9196 3.96555 470.46 7 7 7
-71.1956 1.44341 469.961 5 5 5
-70.6853 -0.0877496 470.471 5 5 5
-71.2637 -2.40156 471.051 5 5 5
-71.1333 -3.929 470.37 5 5 5
-71.1663 -5.89048 470.215 5 5 5
-70.9451 -8.17014 470.396 5 5 5
-70.694 -10.0934 469.937 4 4 4
-70.208 -12.8312 469.766 5 5 5
-70.0177 -14.1182 470.653 4 4 4
-70.6207 -15.9183 471.725 4 4 4
-68.9761 -17.4088 471.679 5 5 5
-68.4003 -19.6655 473.231 4 4 4
-67.8269 -21.1458 473.466 4 4 4
-65.9766 -22.9666 475.067 5 5 5
-64.7706 -24.5198 476.574 5 5 5
-63.805 -25.4717 477.29 6 6 6
-63.0066 -26.4566 478.262 6 6 6
-62.0332 -27.195 478.666 6 6 6
-61.8869 -27.4302 479.311 6 6 6
-61.045 -26.4794 478.786 6 6 6
-61.6359 -26.2122 479.389 6 6 6
-60.698 -25.6623 479.215 6 6 6
-60.5684 -24.8042 480.988 6 6 6
-59.8225 -23.5063 480.225 5 5 5
-59.3261 -22.0482 480.03 4 4 4
-58.6381 -21.6663 481.44 5 5 5
-57.9563 -19.6715 482.019 5 5 5
-58.4172 -17.2888 480.947 5 5 5
-58.3512 -14.8862 481.011 5 5 5
-60.2515 -8.23444 478.394 6 6 6
-61.4314 -4.88348 477.314 5 5 5
-63.2032 -0.895156 475.387 5 5 5
-65.2603 2.78562 474.028 8 8 8
-69.0608 16.7697 473.448 12 12 12
-67.7037 14.201 473.501 7 7 7
-68.3662 13.7223 472.634 7 7 7
-70.3323 12.0768 472.87 8 8 8
-71.4642 7.22272 469.62 9 9 9
-71.5692 6.07485 469.204 10 10 10
-72.1649 3.51376 469.65 8 8 8
-72.4384 -0.493149 467.749 6 6 6
-72.6385 -2.15476 469.302 5 5 5
-72.8664 -3.83313 468.321 4 4 4
-73.519 -5.19406 467.722 5 5 5
-73.8693 -9.61193 467.119 5 5 5
-73.7635 -11.2573 466.762 5 5 5
-74.8371 -13.0528 466.351 4 4 4
-74.574 -15.1425 466.718 4 4 4
-74.5292 -20.1355 465.791 5 5 5
-75.1576 -20.6833 466.958 6 6 6
-74.146 -21.0723 467.588 5 5 5
-73.4181 -21.129 467.607 4 4 4
-73.5144 -20.7404 467.857 4 4 4
-72.5987 -19.792 467.863 4 4 4
-72.5037 -18.9305 468.759 4 4 4
-72.0187 -17.42 469.153 4 4 4
-72.2805 -15.7955 468.955 4 4 4
-72.59 -13.482 469.452 4 4 4
-72.6869 -11.6806 468.421 4 4 4
-74.0871 -5.15129 466.562 5 5 5
-75.616 -2.02314 465.459 8 8 8
-75.7442 7.693 467.026 12 12 12
-74.0175 4.52899 468.013 8 8 8
-73.138 0.614877 469.299 5 5 5
-71.0116 -3.34075 471.349 5 5 5
-69.2546 -7.38188 473.337 5 5 5
-66.9851 -12.3018 474.218 4 4 4
-64.2193 -17.0733 477.457 4 4 4
-62.0122 -21.3541 478.657 5 5 5
-60.0623 -25.6492 482.517 6 6 6
-57.386 -29.8497 484.759 8 8 8
-54.0981 -33.2909 487.439 8 8 8
-52.8811 -36.1764 490.508 8 8 8
-50.692 -38.2135 492.603 9 9 9
-49.8033 -40.6322 494.247 13 13 13
-40.5582 -50.0674 507.942 18 18 18
-39.5593 -50.2751 508.573 17 17 17
-40.9623 -39.6331 499.872 8 8 8
-43.0272 -36.5871 496.741 8 8 8
-44.7618 -33.0406 494.241 8 8 8
-46.9144 -28.9573 490.959 9 9 9
-50.0209 -25.1435 486.818 6 6 6
-53.453 -20.6737 483.683 5 5 5
-56.343 -15.6476 481.421 5 5 5
-63.5777 -5.49524 475.127 5 5 5
-67.1114 -0.533474 471.5 5 5 5
-71.9791 13.6083 469.734 9 9 9
-72.7934 6.52854 469.38 9 9 9
-72.9755 6.31496 468.199 10 10 10
-77.7495 14.2376 465.922 14 14 14
-72.0607 2.29714 470.414 5 5 5
-69.9156 -0.0526757 470.184 5 5 5
-69.3905 -1.74814 471.978 5 5 5
-66.6007 -6.11398 474.935 5 5 5
-64.9675 -7.10146 475.998 5 5 5
-64.3408 -8.19847 475.595 5 5 5
-63.4783 -8.51994 476.864 5 5 5
-62.9132 -9.70647 477.551 8 8 8
-62.1117 -9.96759 478.688 8 8 8
-61.8261 -10.4762 479.6 7 7 7
-61.8064 -10.1146 478.643 7 7 7
-61.8593 -8.97334 477.312 5 5 5
-62.2949 -7.51577 476.528 5 5 5
-63.0693 -6.37611 476.433 5 5 5
-64.486 -3.8572 474.933 5 5 5
-66.1351 -1.49259 473.59 5 5 5
-67.2985 0.967843 471.665 6 6 6
-68.7015 3.63009 472.017 7 7 7
-68.7841 5.44773 471.498 8 8 8
-69.5615 9.36507 471.854 9 9 9
-68.8858 10.3542 471.853 9 9 9
-68.4173 12.1741 472.127 7 7 7
-69.5395 12.8776 472.656 7 7 7
-69.1545 13.2585 473.147 6 6 6
-67.9798 12.3579 473.98 8 8 8
-67.3102 11.4767 474.663 8 8 8
-65.7142 9.98875 475.424 9 9 9
-64.8132 8.35927 475.892 9 9 9
-63.8244 6.61497 477.468 8 8 8
-62.04 4.97254 477.76 8 8 8
-60.9029 3.50221 479.186 7 7 7
-59.604 1.14643 479.742 4 4 4
-58.5084 -1.40596 481.586 7 7 7
-52.275 -10.0446 486.487 19 19 19
-50.578 -13.6593 488.005 43 43 43
-45.9976 -19.1348 492.264 10 10 10
-44.6202 -21.8499 494.458 8 8 8
-42.4963 -23.9544 496.314 9 9 9
-41.0637 -25.3239 498.414 9 9 9
-40.4761 -26.692 498.295 9 9 9
-39.7985 -27.5867 497.911 9 9 9
-39.7236 -26.9597 498.393 8 8 8
-40.2054 -26.4548 497.762 8 8 8
-40.7737 -25.6889 497.933 8 8 8
-41.2811 -23.8727 495.474 9 9 9
-42.1081 -22.666 495.52 8 8 8
-42.4674 -20.2793 494.856 7 7 7
-43.1897 -18.7909 491.985 12 12 12
-44.572 -15.1512 490.326 6 6 6
-47.6202 -11.6382 489.338 8 8 8
-49.277 -7.11154 486.704 5 5 5
-52.4583 -2.09638 483.115 10 10 10
-56.5937 3.87074 481.426 9 9 9
-64.6901 15.6878 477.181 9 9 9
-62.2222 10.7684 479.491 9 9 9
-56.2739 1.29513 482.078 7 7 7
-56.0199 -0.296272 482.198 6 6 6
-56.4263 -2.20826 482.673 9 9 9
-57.5364 -2.02342 481.464 6 6 6
-61.7044 0.00764368 477.804 5 5 5
-67.586 4.47848 471.808 8 8 8
-70.4692 6.26648 469.404 10 10 10
-74.6184 6.20145 468.015 9 9 9
-72.3421 3.21451 468.645 8 8 8
-71.659 0.884226 469.918 5 5 5
-69.834 -1.16538 472.005 5 5 5
-68.7399 -3.05334 472.498 5 5 5
-67.4436 -5.09035 473.767 5 5 5
-66.9802 -6.68348 474.207 6 6 6
-66.2005 -7.75631 475.335 5 5 5
-64.0276 -11.4201 475.766 5 5 5
-64.1568 -11.0937 476.433 5 5 5
-65.6303 -9.92661 474.248 5 5 5
-66.957 -8.87794 472.489 5 5 5
-68.3947 -7.00803 471.556 5 5 5
-70.366 -5.45483 469.408 4 4 4
-72.5846 -2.99798 468.189 6 6 6
-73.8042 -0.00828557 466.181 9 9 9
-77.0021 2.5602 463.984 10 10 10
-67.8533 0.325702 473.164 5 5 5
-64.7653 -2.41312 477.423 6 6 6
-61.9963 -6.24963 479.374 6 6 6
-57.5115 -12.3621 482.441 5 5 5
-55.1507 -14.9804 484.442 6 6 6
-54.9137 -16.7316 484.802 5 5 5
-53.2997 -18.2524 485.323 5 5 5
-53.7826 -18.9831 483.608 5 5 5
-54.635 -19.1499 484.06 5 5 5
-56.2133 -19.1877 481.678 5 5 5
-58.0041 -18.7437 480.184 6 6 6
-59.8838 -18.1275 478.826 5 5 5
-61.9377 -16.8426 476.195 4 4 4
-65.0875 -15.6437 474.274 4 4 4
-72.2129 -10.577 467.746 4 4 4
-75.7243 -8.41069 464.847 6 6 6
-79.2226 -5.54245 461.537 46 46 46
-81.9685 -3.89817 460.69 48 48 48
-80.484 -6.36557 462.024 31 31 31
-79.7562 -8.17665 463.258 7 7 7
-78.8023 -10.2634 463.77 5 5 5
-77.4503 -11.5568 464.141 4 4 4
-77.7327 -12.7687 463.928 4 4 4
-78.3332 -12.8468 464.097 5 5 5
-79.3466 -12.9448 462.523 5 5 5
-82.6398 -30.9908 460.323 29 29 29
-76.6769 -44.3465 473.498 14 14 14
-75.82 -46.8399 475.549 10 10 10
-75.4954 -48.7433 476.508 10 10 10
-75.5302 -50.4513 475.817 9 9 9
-76.5275 -51.2727 475.143 9 9 9
-76.9326 -51.8147 474.162 9 9 9
-78.3095 -51.7712 473.325 9 9 9
-79.5258 -51.8933 472.783 11 11 11
