-1.9565 36.2256 494.927 1 1 1
-1.54515 36.2624 495.11 2 2 2
-1.6142 37.2212 494.349 2 2 2
-2.72168 37.718 493.71 2 2 2
-5.47033 39.3215 492.961 2 2 2
-6.40526 40.0725 492.006 2 2 2
-8.70914 40.5695 489.607 2 2 2
-10.9526 40.7121 487.826 2 2 2
-12.6086 40.4126 485.828 1 1 1
-14.0821 40.461 485.435 2 2 2
-14.8238 39.3075 484.764 2 2 2
-14.6783 39.0105 484.266 2 2 2
-14.0247 37.1767 484.105 2 2 2
-13.0708 34.5801 484.048 2 2 2
-13.2743 33.0566 482.928 2 2 2
-14.6628 32.6137 481.688 2 2 2
-15.7345 31.7219 480.62 3 3 3
-16.35 31.5306 479.671 3 3 3
-16.6157 31.5111 479.584 3 3 3
-17.6578 31.5426 478.803 4 4 4
-16.771 32.0648 479.674 3 3 3
-16.6311 32.9396 480.301 2 2 2
-15.1597 33.9878 482.367 2 2 2
-2.78765 36.2346 493.964 2 2 2
0.538895 36.0905 496.561 2 2 2
1.74581 35.9754 497.275 2 2 2
1.62089 37.6529 497.321 3 3 3
0.375088 38.5136 496.792 3 3 3
-5.14132 41.503 492.447 2 2 2
-7.50044 42.2646 491.407 3 3 3
-11.6045 43.7524 488.186 3 3 3
-12.0058 42.7591 488.95 3 3 3
-11.0244 41.8724 488.826 3 3 3
-10.0726 40.9474 488.735 2 2 2
-10.6519 38.604 487.639 2 2 2
-11.3826 37.8497 486.247 1 1 1
-15.2829 37.1154 482.847 2 2 2
-16.5034 36.1907 481.994 2 2 2
-15.2144 35.2389 482.285 2 2 2
-14.1669 34.9847 483.62 2 2 2
-13.6867 36.6337 484.303 2 2 2
-18.4151 41.6914 482.203 2 2 2
-19.7906 42.619 481.134 2 2 2
-22.5754 45.8577 479.353 2 2 2
-24.3993 48.6676 478.198 1 1 1
-20.0524 49.7633 484.091 1 1 1
-16.9174 49.2752 486.365 2 2 2
-16.6256 49.1887 486.757 2 2 2
-16.2641 48.9955 486.75 1 1 1
-16.6225 49.1057 486.491 4 4 4
-17.8853 49.1296 485.043 1 1 1
-18.6106 49.2723 484.77 1 1 1
-14.3046 45.9084 488.037 1 1 1
-10.1802 43.6204 489.578 3 3 3
-8.6167 42.1289 491.618 3 3 3
-6.93607 40.9687 491.988 2 2 2
-3.02481 37.5265 493.956 2 2 2
-1.11719 35.9978 495.097 2 2 2
0.655045 34.5407 495.794 1 1 1
1.31206 34.0091 496.228 2 2 2
1.27743 34.485 495.734 2 2 2
0.61356 35.3903 495.614 2 2 2
-1.16809 36.308 494.758 2 2 2
-2.26109 36.9789 493.984 1 1 1
-3.49441 38.1248 493.613 2 2 2
-6.36069 41.2507 491.961 2 2 2
-5.44317 42.6857 493.096 2 2 2
-4.05438 42.3535 494.432 2 2 2
-4.39206 41.0054 493.773 2 2 2
-5.51725 39.8183 492.355 2 2 2
-6.2402 39.6237 491.84 2 2 2
-7.18197 38.075 490.649 2 2 2
-6.66543 35.0557 489.37 1 1 1
-6.26818 34.3563 489.922 2 2 2
-5.31915 33.9636 490.872 2 2 2
-3.50555 32.9219 491.344 1 1 1
-3.63714 32.9318 491.861 2 2 2
-3.0842 33.2659 491.693 2 2 2
-3.45416 34.7949 492.85 2 2 2
-3.34854 35.1365 492.245 2 2 2
-3.43626 35.7579 492.289 2 2 2
-3.51077 36.8343 492.989 2 2 2
-3.88201 38.2177 492.979 2 2 2
-4.55945 39.5156 493.562 2 2 2
-5.15168 41.3634 493.13 2 2 2
-8.16285 45.4922 492.312 0 0 0
-9.11686 46.9788 491.886 4 4 4
-10.0339 47.5772 492.048 5 5 5
-10.6216 48.1145 490.736 4 4 4
-11.1344 48.4273 489.541 3 3 3
-11.5815 48.915 489.25 4 4 4
-12.0627 48.6512 490.216 5 5 5
-12.1898 48.1029 490.631 4 4 4
-10.9386 47.1115 490.09 2 2 2
-6.24354 30.183 488.102 2 2 2
-5.5697 28.6694 488.339 4 4 4
-4.58417 27.0738 487.89 5 5 5
-4.2402 25.4883 488.637 4 4 4
-3.20651 23.7654 488.121 4 4 4
-3.09238 23.5415 488.051 5 5 5
-3.29281 23.4055 487.647 4 4 4
-3.54027 23.2082 487.121 3 3 3
-4.24251 23.8719 487.575 4 4 4
-4.63324 24.159 487.338 4 4 4
-4.6213 24.3125 486.456 5 5 5
-3.85453 24.8968 487.591 5 5 5
-3.61537 25.5663 489.058 4 4 4
-2.56074 26.096 489.876 6 6 6
-1.78884 26.8587 490.695 7 7 7
-0.965258 27.8899 490.837 3 3 3
-0.733358 28.953 492.727 3 3 3
-0.354989 30.222 493.014 2 2 2
-0.686434 33.4033 494.624 1 1 1
-0.66513 34.5678 494.781 2 2 2
-0.229696 35.4673 495.462 1 1 1
0.651236 37.5665 496.76 2 2 2
0.606471 38.2105 496.995 3 3 3
0.383948 38.1986 497.495 3 3 3
0.720346 38.12 496.909 3 3 3
1.49528 36.0406 497.18 2 2 2
1.45655 35.2415 497.18 2 2 2
2.76957 32.7307 497.342 2 2 2
3.36455 31.8509 497.35 1 1 1
4.76532 29.9278 497.351 2 2 2
5.10475 28.9517 498.171 3 3 3
5.85303 27.1421 497.694 5 5 5
6.30416 26.3709 496.957 7 7 7
6.52085 25.835 496.719 6 6 6
6.71759 25.2837 497.328 4 4 4
6.63225 24.8841 496.056 4 4 4
6.69933 24.6967 497.294 5 5 5
6.61885 24.666 496.896 4 4 4
6.40865 25.4229 496.628 5 5 5
6.20877 26.039 496.878 5 5 5
5.90097 26.925 497.151 6 6 6
5.71404 28.9495 497.63 2 2 2
5.4296 29.9464 498.223 2 2 2
6.2476 34.3602 500.498 2 2 2
6.78524 36.4918 501.74 5 5 5
7.61364 37.2547 502.209 5 5 5
8.32621 37.9536 502.273 4 4 4
8.27336 38.405 503.192 2 2 2
11.9785 35.6088 505.183 5 5 5
14.9129 30.7745 505.953 1 1 1
16.5493 28.3341 507.123 3 3 3
13.681 26.3234 502.955 2 2 2
12.5058 26.3995 502.202 2 2 2
10.4541 27.5337 500.8 2 2 2
10.2458 28.0908 500.479 2 2 2
12.5748 34.7763 504.782 5 5 5
12.177 36.5617 505.676 4 4 4
12.5381 40.3622 506.019 5 5 5
12.3859 42.3406 506.419 1 1 1
20.7375 40.9591 513.006 0 0 0
20.9125 39.8713 512.754 1 1 1
21.2441 38.3374 512.89 5 5 5
21.7794 37.5736 513.421 4 4 4
22.302 31.9835 512.098 7 7 7
25.0734 28.0268 513.652 4 4 4
27.8837 26.6219 515.217 3 3 3
28.7986 26.551 515.346 2 2 2
27.0446 30.6092 515.468 7 7 7
26.4709 31.7638 514.406 5 5 5
22.8285 36.8477 514.423 3 3 3
21.0239 39.7195 512.713 1 1 1
20.0377 38.6444 511.233 5 5 5
24.4173 32.3395 513.637 6 6 6
26.1657 29.9089 514.318 5 5 5
26.9235 29.0082 514.955 6 6 6
27.0982 27.8604 514.898 5 5 5
28.3527 26.3996 515.506 4 4 4
28.2563 26.4074 515.023 3 3 3
28.2798 30.6834 516.628 7 7 7
29.0843 31.8514 516.729 1 1 1
29.4546 33.0986 518.306 1 1 1
30.6194 35.6521 518.841 6 6 6
35.9931 19.4438 518.943 1 1 1
51.0858 14.1842 529.055 3 3 3
50.6476 16.0209 529.431 2 2 2
50.3456 18.109 529.716 3 3 3
50.3768 19.8494 530.002 3 3 3
50.036 21.941 529.9 4 4 4
49.2735 23.2854 529.592 5 5 5
48.9387 25.2373 529.518 1 1 1
46.5603 29.9233 529.793 5 5 5
45.3687 30.7577 528.538 4 4 4
45.2598 30.8262 527.768 4 4 4
44.6896 31.0045 528.438 4 4 4
44.5866 30.7124 527.713 4 4 4
44.2603 30.4808 528.565 3 3 3
45.231 27.6664 528.206 1 1 1
46.6499 25.6792 528.268 3 3 3
47.853 23.9148 529.221 5 5 5
48.3808 23.2589 530.347 5 5 5
49.3561 22.1379 530.458 4 4 4
50.1631 21.1884 530.046 3 3 3
51.436 20.3772 530.658 2 2 2
51.336 20.5948 530.623 3 3 3
50.0685 22.4615 530.047 4 4 4
47.4535 25.1169 528.694 4 4 4
43.7648 29.837 527.817 4 4 4
46.2846 39.4118 534.967 59 59 59
47.0361 38.94 535.45 20 20 20
51.4294 27.681 533.36 4 4 4
52.1967 26.734 533.613 1 1 1
52.9485 25.7183 534.002 1 1 1
53.9559 22.72 533.512 3 3 3
54.1293 22.7988 533.202 1 1 1
53.5879 23.1762 533.136 1 1 1
52.0925 24.2478 531.567 2 2 2
36.6992 34.7932 522.979 1 1 1
34.5793 35.9092 522.553 1 1 1
36.4681 35.5848 523.367 1 1 1
37.6286 35.02 524.018 1 1 1
39.8589 33.6727 525.217 1 1 1
42.1015 30.7922 526.686 0 0 0
45.251 25.2459 528.115 5 5 5
47.4654 23.1159 528.499 4 4 4
49.7577 19.7039 528.986 3 3 3
49.7896 19.4919 529.481 3 3 3
49.4155 19.8084 529.411 2 2 2
48.0868 21.9042 528.638 3 3 3
48.0363 22.7141 528.333 4 4 4
47.4846 23.9195 529.048 5 5 5
46.813 25.4385 528.451 2 2 2
49.7425 26.9743 532.505 2 2 2
51.0059 25.7935 531.959 1 1 1
52.0361 23.494 531.373 5 5 5
51.9643 22.8042 531.591 4 4 4
51.2179 22.1519 531.073 4 4 4
50.6857 21.9281 530.493 3 3 3
50.7995 20.8427 530.07 3 3 3
51.1548 20.7409 530.59 3 3 3
51.3455 20.9644 530.564 3 3 3
51.146 21.7387 530.977 2 2 2
50.925 23.0417 530.62 4 4 4
50.5559 23.791 530.614 5 5 5
49.7032 24.7015 530.527 3 3 3
46.7872 28.7853 529.597 4 4 4
47.0929 29.3585 528.845 4 4 4
47.4013 29.3093 530.843 6 6 6
49.6956 28.2719 531.513 4 4 4
50.8721 27.8378 532.966 4 4 4
51.2537 27.8446 533.59 6 6 6
51.5654 27.8085 532.325 4 4 4
51.4574 28.6405 532.231 6 6 6
50.797 28.483 532.652 4 4 4
51.9423 27.8143 533.224 5 5 5
65.1616 17.2385 540.951 6 6 6
65.6981 14.9446 540.065 4 4 4
64.3729 14.8986 539.342 4 4 4
64.4648 17.9067 540.333 6 6 6
64.7176 18.9387 540.141 5 5 5
64.2339 22.9947 540.972 6 6 6
69.3338 20.5635 544.756 1 1 1
71.5199 16.6635 544.157 3 3 3
72.0319 15.5246 544.81 4 4 4
71.1085 12.9939 543.244 4 4 4
66.6886 17.089 542.2 7 7 7
62.1194 23.3826 540.234 3 3 3
67.4133 24.4478 543.413 1 1 1
74.0084 20.1229 547.934 7 7 7
74.8516 19.0346 548.55 2 2 2
74.3151 18.5972 547.827 1 1 1
72.7515 21.1636 546.344 5 5 5
71.6617 21.6199 545.736 6 6 6
72.1062 19.574 546.366 1 1 1
72.6559 18.3201 546.606 1 1 1
72.7634 14.0552 544.833 4 4 4
71.8785 15.0181 544.694 5 5 5
70.7608 18.0323 545.154 1 1 1
69.3032 20.6166 544.055 2 2 2
68.1701 21.8855 543.333 4 4 4
67.9757 23.4975 543.363 3 3 3
69.6257 21.7052 544.517 7 7 7
70.3033 19.659 545.009 1 1 1
70.1945 11.997 543.025 4 4 4
66.6215 17.8444 540.719 7 7 7
66.6808 11.7356 539.665 3 3 3
64.7128 10.1687 538.353 3 3 3
63.3171 14.6468 538.297 3 3 3
63.269 15.7461 538.996 3 3 3
61.0395 24.5835 538.941 4 4 4
60.6957 26.2471 538.893 2 2 2
58.6804 25.2969 536.933 3 3 3
59.853 20.1271 537.632 5 5 5
60.3 18.0907 536.489 4 4 4
60.5665 16.4171 537.354 4 4 4
58.8787 20.7767 536.488 3 3 3
48.8631 28.546 531.437 3 3 3
50.3279 25.1465 531.519 1 1 1
51.1291 23.5055 531.384 5 5 5
51.6135 21.4633 531.838 3 3 3
52.4946 19.5101 531.491 3 3 3
52.9795 17.5246 531.394 3 3 3
54.5475 14.5024 531.618 2 2 2
54.9562 11.9604 530.539 2 2 2
54.1191 12.4512 530.597 2 2 2
53.9125 13.6299 530.548 2 2 2
53.1186 18.3358 531.659 2 2 2
52.5797 20.0221 531.999 3 3 3
52.1303 22.2259 531.405 4 4 4
51.3815 24.1218 531.143 3 3 3
52.5358 24.1253 532.641 1 1 1
53.5272 20.9725 532.875 5 5 5
56.0505 12.4505 531.999 2 2 2
55.5494 12.1403 531.7 2 2 2
54.1644 12.1017 530.447 2 2 2
52.1078 19.2228 530.743 3 3 3
51.3751 20.6558 531.424 3 3 3
50.7493 22.5268 530.767 4 4 4
49.4707 24.4202 530.25 3 3 3
45.7265 30.2175 528.52 4 4 4
43.3964 30.1371 527.628 3 3 3
45.2299 24.6156 527.792 5 5 5
47.3768 20.8353 527.887 3 3 3
47.5162 19.7617 528.838 3 3 3
47.9558 18.6697 527.495 2 2 2
48.307 16.4102 528.403 2 2 2
49.1531 14.4263 527.157 2 2 2
48.9231 14.4385 527.369 2 2 2
51.5067 18.1315 530.216 3 3 3
51.647 20.2988 531.326 3 3 3
51.5038 22.0941 531.224 4 4 4
45.2533 31.9723 528.848 1 1 1
47.6388 24.0737 529.508 5 5 5
49.7871 20.4818 529.888 2 2 2
50.2748 18.8981 529.37 3 3 3
49.7203 12.8403 527.406 2 2 2
48.8787 23.1205 529.702 4 4 4
47.3974 25.2747 528.629 4 4 4
41.7092 30.1638 526.848 4 4 4
42.7526 26.22 525.938 4 4 4
43.3844 25.0347 525.648 5 5 5
43.3909 21.6797 525.303 3 3 3
43.7934 20.0093 524.761 2 2 2
43.2383 19.8195 524.157 2 2 2
39.8808 24.4335 523.308 5 5 5
38.6501 25.7001 522.522 6 6 6
37.6129 26.1777 522.578 4 4 4
36.986 26.8618 521.658 6 6 6
36.2483 27.1137 520.734 7 7 7
35.8638 26.9571 520.872 6 6 6
36.1043 27.0096 521.822 8 8 8
37.1313 26.3171 521.258 7 7 7
38.1029 25.0596 522.036 5 5 5
38.7865 24.6018 522.679 4 4 4
39.1834 23.7487 522.922 5 5 5
40.1497 22.6153 523.386 3 3 3
40.2262 22.1588 523.244 2 2 2
39.9295 22.1066 523.544 4 4 4
40.3918 21.9652 523.472 4 4 4
40.2172 22.4324 524.269 4 4 4
40.2178 22.7169 523.494 4 4 4
40.2736 23.1799 523.852 4 4 4
40.5342 27.1274 524.318 4 4 4
40.7229 27.7568 524.406 2 2 2
36.2937 34.6575 522.688 2 2 2
34.6444 36.5317 522.202 0 0 0
31.105 31.892 519.608 1 1 1
33.5971 27.4808 520.007 5 5 5
36.978 22.3977 521.001 2 2 2
40.8703 18.0616 522.274 2 2 2
45.333 11.2577 522.811 3 3 3
45.3677 15.6444 524.565 2 2 2
45.0452 18.6799 525.353 2 2 2
44.5908 20.2877 525.895 2 2 2
43.8775 23.9276 525.991 4 4 4
41.8371 27.3414 524.888 1 1 1
39.8661 30.4488 525.696 2 2 2
37.8387 33.0298 523.262 6 6 6
37.0049 34.3318 523.159 1 1 1
32.8194 36.9792 521.073 0 0 0
28.7053 37.4195 518.467 1 1 1
28.1889 36.9038 517.978 1 1 1
28.4064 36.306 517.217 5 5 5
28.5925 35.5257 516.711 2 2 2
29.1238 34.8536 517.941 4 4 4
32.2322 30.137 519.255 6 6 6
33.7687 28.828 520.173 7 7 7
37.275 26.0809 522.109 5 5 5
41.6808 22.9379 524.7 4 4 4
43.5756 21.3448 525.442 2 2 2
47.8477 19.0381 527.613 2 2 2
48.5933 19.1173 528.217 3 3 3
48.3392 19.8158 528.078 2 2 2
45.2614 24.5544 527.027 5 5 5
41.3355 30.335 526.342 3 3 3
39.638 32.6163 524.512 4 4 4
38.8361 33.9475 524.063 1 1 1
35.435 37.5124 523.219 0 0 0
25.7633 37.0308 515.436 5 5 5
25.8408 36.6197 515.203 5 5 5
26.0316 35.9 515.905 4 4 4
30.8556 27.301 517.297 5 5 5
31.6992 26.2708 518.258 5 5 5
37.9667 28.4515 522.692 5 5 5
33.9322 35.0139 521.019 2 2 2
25.7191 45.3649 520.876 39 39 39
23.5309 41.5067 515.73 0 0 0
23.65 39.5679 514.911 1 1 1
23.9153 38.6991 514.531 1 1 1
23.9729 37.3328 514.401 4 4 4
24.3771 33.5863 514.12 1 1 1
31.5368 20.9018 515.917 2 2 2
34.2554 19.6796 517.398 1 1 1
38.7627 20.7152 521.165 2 2 2
37.9696 30.0338 523.094 0 0 0
36.4844 33.9288 522.707 4 4 4
33.5219 37.5499 521.017 0 0 0
27.7785 37.4835 516.76 1 1 1
24.273 33.3875 513.184 2 2 2
22.9385 32.7239 512.621 6 6 6
17.1483 27.2944 506.6 2 2 2
21.3857 23.066 508.538 2 2 2
32.0547 19.6212 515.445 2 2 2
30.8933 33.6518 518.831 2 2 2
29.6643 34.6084 518.027 3 3 3
28.2462 35.2898 517.1 3 3 3
25.6005 36.8694 514.397 4 4 4
23.8307 37.9971 514.122 5 5 5
16.7818 39.2723 509.649 3 3 3
15.1955 38.8617 508.9 3 3 3
14.3208 33.5419 506.342 4 4 4
16.9923 29.6253 507.523 1 1 1
19.5094 26.7311 508.482 2 2 2
35.1073 18.6728 518.376 1 1 1
42.8167 20.67 524.318 2 2 2
43.5593 22.0358 525.46 3 3 3
43.6837 23.8913 526.01 4 4 4
43.413 25.2212 525.645 5 5 5
38.6187 31.2445 523.928 4 4 4
33.8642 35.3817 521.398 1 1 1
26.0413 40.5975 516.981 0 0 0
12.4412 41.3004 506.184 5 5 5
12.807 40.0894 507.014 5 5 5
14.7783 35.559 507.711 6 6 6
15.7871 33.9457 506.754 5 5 5
15.7885 32.7318 506.869 5 5 5
29.1409 22.7785 514.456 2 2 2
28.9989 25.0804 514.769 3 3 3
27.2972 28.2607 514.407 5 5 5
26.3501 29.9769 514.68 6 6 6
24.8123 33.8683 513.431 0 0 0
22.5729 37.3305 512.874 5 5 5
16.1742 41.7922 509.195 1 1 1
15.6961 41.2551 509.782 2 2 2
15.7634 40.3286 507.334 4 4 4
14.7537 40.2793 507.967 5 5 5
13.0396 37.5289 505.8 1 1 1
11.8854 36.5646 505.628 5 5 5
11.613 35.5247 504.724 5 5 5
11.4968 34.6101 504.827 6 6 6
12.0623 32.0156 504.051 1 1 1
14.554 29.1893 505.015 2 2 2
31.1409 24.195 517.038 3 3 3
33.3268 24.8728 518.779 4 4 4
36.725 26.4311 521.764 6 6 6
38.3123 27.6676 522.729 7 7 7
39.1375 28.77 523.905 1 1 1
39.8745 29.8654 525.408 1 1 1
39.9522 31.488 524.476 5 5 5
19.9815 39.2602 511.772 2 2 2
19.5561 38.1015 512.076 4 4 4
18.021 35.1331 508.921 2 2 2
17.3893 32.7175 508.21 5 5 5
17.1043 31.2177 508.353 4 4 4
17.1614 30.011 507.341 2 2 2
17.5401 27.8565 507.182 3 3 3
20.7725 23.538 508.102 2 2 2
40.6516 28.1754 524.699 1 1 1
24.3271 46.6762 520.24 11 11 11
13.2286 42.2354 507.263 1 1 1
12.4288 40.1455 506.81 3 3 3
12.2491 34.1859 504.951 4 4 4
18.2867 16.6024 503.445 2 2 2
19.1151 14.5289 503.589 5 5 5
20.5028 12.2486 504.727 7 7 7
23.3548 8.3936 504.377 6 6 6
29.2641 3.29364 509.294 1 1 1
33.6871 1.66267 511.679 4 4 4
35.943 1.85425 513.33 12 12 12
37.9007 2.30384 514.465 9 9 9
39.1615 3.09549 516.059 10 10 10
40.0657 4.16082 516.975 9 9 9
40.9401 12.5102 520.175 3 3 3
41.8172 26.34 524.991 7 7 7
36.6407 33.1055 523.034 6 6 6
21.9681 40.0192 512.897 1 1 1
18.7161 39.7859 510.593 5 5 5
17.4226 39.2985 510.334 4 4 4
16.6414 38.2367 508.981 1 1 1
14.2176 35.7611 506.353 5 5 5
14.5008 34.2602 506.523 5 5 5
33.7524 13.3676 514.876 5 5 5
34.8901 14.7544 515.54 3 3 3
35.9634 18.8697 517.752 1 1 1
35.5219 22.8115 519.746 3 3 3
34.7743 24.9971 520.157 4 4 4
34.3993 27.4211 519.944 6 6 6
30.7335 35.4183 518.823 5 5 5
19.6713 47.0798 516.44 3 3 3
18.1445 39.8039 510.135 5 5 5
20.9827 30.6446 511.085 5 5 5
22.6167 29.0736 511.795 4 4 4
29.2413 25.0314 515.521 3 3 3
36.2066 24.6411 520.746 5 5 5
26.4646 51.306 518.751 0 0 0
19.1358 51.8825 514.416 92 92 92
18.8316 48.7532 517.846 2 2 2
18.884 47.6802 516.144 6 6 6
19.3011 39.6172 511.866 5 5 5
19.6887 38.1633 511.616 4 4 4
22.1765 30.6971 511.761 5 5 5
25.0874 31.6375 514.951 6 6 6
29.1004 36.5295 518.353 3 3 3
16.3323 50.8797 514.381 7 7 7
17.1959 50.0612 516.768 2 2 2
18.098 49.0613 516.807 2 2 2
20.567 52.1251 515.985 4 4 4
3.05076 53.8636 507.082 1 1 1
2.07785 54.3598 505.524 3 3 3
0.776693 54.1089 504.453 7 7 7
-4.20589 57.5973 500.61 7 7 7
-5.58823 61.1549 496.262 3 3 3
-20.7463 63.9473 488.283 33 33 33
-20.8067 63.0549 488.979 16 16 16
-19.4301 61.4769 491.186 1 1 1
-18.791 60.612 490.592 2 2 2
-14.3927 77.1074 502.065 0 0 0
-13.0552 58.9913 494.922 3 3 3
-10.5694 57.469 495.825 1 1 1
-11.4279 58.7764 495.932 3 3 3
-16.1878 64.3293 489.838 2 2 2
-12.4905 63.9127 492.907 0 0 0
-12.107 63.2813 492.283 2 2 2
-11.1887 75.602 504.896 0 0 0
-11.8609 61.1133 493.221 56 56 56
-10.5875 58.6134 496.033 1 1 1
-2.40368 47.9473 497.231 0 0 0
-2.03217 47.0148 496.609 1 1 1
-1.89252 46.2033 496.717 4 4 4
-1.70791 45.9204 497.945 5 5 5
-1.75507 46.2478 496.037 5 5 5
-3.20281 55.6877 502.427 1 1 1
-4.33975 60.962 497.469 1 1 1
-0.427864 57.7091 501.347 73 73 73
2.43607 53.998 506.712 1 1 1
2.23436 54.1627 505.996 2 2 2
-2.57112 55.1772 502.165 1 1 1
-4.92269 60.2405 497.709 7 7 7
1.0458 55.0991 505.283 3 3 3
6.96298 43.554 503.406 5 5 5
6.99418 42.6048 502.966 5 5 5
6.99037 42.1934 504.063 5 5 5
4.57517 43.0663 500.459 5 5 5
3.60821 44.5358 500.105 5 5 5
6.0787 53.4164 509.169 2 2 2
10.7005 44.2191 506.14 0 0 0
11.5449 43.2709 505.727 1 1 1
6.44654 53.5773 509.423 4 4 4
15.4163 49.8839 515.29 4 4 4
13.1192 50.9371 513.308 3 3 3
17.5149 50.4939 515.342 6 6 6
20.1286 47.1296 517.138 3 3 3
19.2299 48.9037 517.57 2 2 2
18.1184 48.8696 516.61 2 2 2
20.6544 48.8823 519.409 5 5 5
21.0633 48.0036 519.6 2 2 2
20.9072 47.597 518.678 3 3 3
21.0894 47.5758 518.609 3 3 3
20.7962 48.6765 519.227 2 2 2
20.5101 48.4521 519.088 3 3 3
18.3883 53.6903 513.664 2 2 2
17.9409 49.148 516.577 2 2 2
18.0647 50.0366 516.05 7 7 7
18.2844 49.2296 517.18 2 2 2
18.2719 48.8913 517.22 2 2 2
18.0031 48.5797 517.066 2 2 2
17.919 48.4909 516.404 2 2 2
17.5714 48.7338 516.419 2 2 2
17.314 49.2043 516.646 2 2 2
16.3792 50.769 514.434 7 7 7
14.3808 54.5812 512.236 3 3 3
16.6057 48.293 514.779 2 2 2
19.3305 41.5573 511.943 0 0 0
17.6597 48.8375 515.967 34 34 34
19.1551 53.1567 514.748 2 2 2
19.775 48.649 518.411 1 1 1
20.1364 47.164 517.11 3 3 3
27.0875 46.9164 523.203 2 2 2
28.855 46.354 523.82 5 5 5
27.946 46.2428 524.072 6 6 6
23.1367 51.8795 517.436 10 10 10
24.6102 47.089 521.581 1 1 1
26.2078 46.7171 522.276 1 1 1
26.733 46.3513 522.458 2 2 2
27.4135 44.6058 521.858 2 2 2
27.5467 45.7108 523.247 1 1 1
24.3541 51.4122 518.552 3 3 3
25.6159 51.1452 519.119 2 2 2
33.0106 43.1728 526.096 2 2 2
36.5583 42.4801 529.074 2 2 2
26.0726 51.2724 519.211 3 3 3
24.4025 46.4993 520.551 49 49 49
26.5434 35.8809 516.28 4 4 4
27.449 34.5844 517.111 2 2 2
27.5435 34.7385 517.102 1 1 1
26.6121 35.4692 516.332 1 1 1
25.1968 36.4615 515.186 4 4 4
18.8864 42.8169 512.433 0 0 0
9.12896 52.0411 510.641 2 2 2
14.9849 48.8303 515.627 0 0 0
18.843 48.8569 517.966 3 3 3
22.2232 38.8517 513.284 2 2 2
21.9264 37.7933 514.057 3 3 3
22.952 37.7525 513.672 5 5 5
23.0773 36.9074 514.155 3 3 3
25.3835 36.3318 515.057 4 4 4
26.2915 35.6059 516.973 1 1 1
27.4984 36.3197 516.165 5 5 5
28.2999 36.3478 517.141 4 4 4
28.6816 45.8015 524.385 1 1 1
29.6332 49.8787 521.848 2 2 2
35.4848 43.7655 528.806 2 2 2
35.9131 42.7699 528.757 2 2 2
34.0094 43.8378 528.408 6 6 6
34.4441 34.6225 521.477 6 6 6
34.344 34.2763 521.289 6 6 6
34.3558 34.4392 520.851 5 5 5
34.2976 35.1874 521.524 2 2 2
35.571 42.9519 528.474 4 4 4
33.5382 43.561 526.462 2 2 2
34.6735 44.3358 528.071 2 2 2
33.0382 35.3102 520.679 2 2 2
33.9297 34.761 521.187 5 5 5
38.3812 32.7798 523.868 6 6 6
34.3011 48.3817 524.604 3 3 3
40.7537 30.5087 525.416 2 2 2
44.3178 25.4248 526.819 5 5 5
44.6989 24.8749 527.408 4 4 4
48.7089 24.9786 529.771 4 4 4
49.9768 29.0683 531.723 6 6 6
46.3421 39.4493 535.387 1 1 1
42.6067 45.4423 530.521 9 9 9
42.4796 41.2926 533.825 3 3 3
42.4242 40.9524 533.879 2 2 2
43.8471 30.1569 527.879 4 4 4
43.4531 29.2547 527.978 1 1 1
42.9241 30.0485 526.778 4 4 4
41.9168 31.5471 527.321 0 0 0
38.5529 35.9859 524.517 0 0 0
31.8479 46.1191 524.585 4 4 4
39.3441 41.3148 532.789 2 2 2
39.7037 40.8738 531.672 2 2 2
39.4961 34.7185 525.58 0 0 0
39.9143 34.7547 525.615 0 0 0
41.5482 34.5334 528.366 0 0 0
42.6021 40.2497 532.822 7 7 7
42.108 41.0225 533.275 4 4 4
39.1946 43.9611 529.165 4 4 4
35.0237 43.8703 528.682 3 3 3
34.6548 42.9887 527.553 2 2 2
36.5531 35.4406 523.243 1 1 1
36.974 34.2948 523.302 2 2 2
37.2285 33.7531 523.77 1 1 1
37.1853 32.6395 523.473 5 5 5
36.9594 32.0871 523.134 4 4 4
32.0402 33.4441 519.618 2 2 2
32.3212 34.7653 520.19 4 4 4
32.741 36.8195 520.622 1 1 1
30.1619 44.6447 525.065 1 1 1
33.4363 33.7648 520.754 4 4 4
33.8514 32.4945 521.204 2 2 2
35.1525 29.4768 520.636 6 6 6
35.7132 28.2305 521.295 8 8 8
37.0542 27.2045 521.788 8 8 8
37.9276 25.7543 521.551 5 5 5
38.914 24.6624 522.963 5 5 5
42.0016 23.3607 524.946 5 5 5
43.4716 27.9982 527.248 0 0 0
42.4006 40.7677 533.599 2 2 2
41.7896 42.5822 531.395 4 4 4
41.833 46.0395 530.203 4 4 4
42.4541 41.1581 533.855 7 7 7
43.8839 30.4781 527.287 2 2 2
44.009 29.9294 527.83 5 5 5
44.2819 29.4373 528.068 4 4 4
43.8038 31.603 528.393 1 1 1
52.5154 28.338 533.289 3 3 3
57.5966 36.1621 542.366 0 0 0
116.875 34.3541 584.329 4 4 4
134.581 -13.2687 577.428 8 8 8
130.322 -12.8806 573.314 7 7 7
119.353 -12.5888 565.917 8 8 8
111.708 -9.65473 562.223 6 6 6
111.648 -7.83511 562.846 3 3 3
125.278 21.8627 584.154 10 10 10
126.03 23.2393 585.454 3 3 3
112.734 28.0393 578.44 9 9 9
113.344 23.0512 577.23 4 4 4
112.455 20.4813 578.391 17 17 17
113.154 19.1054 577.039 3 3 3
110.709 -9.02877 560.995 7 7 7
112.535 -8.42592 562.65 4 4 4
111.812 1.08423 567.999 26 26 26
112.765 2.00914 568.713 25 25 25
121.312 8.90154 576.056 10 10 10
128.72 -48.6649 578.145 255 255 255
127.081 -51.0067 576.137 255 255 255
124.992 -53.0234 575.159 255 255 255
123.142 -55.4783 574.102 247 247 247
121.223 -57.2552 572.088 222 222 222
118.989 -59.7639 571.686 40 40 40
116.488 -61.8315 569.468 122 122 122
113.711 -64.3607 568.735 54 54 54
111.058 -66.2017 567.284 30 30 30
108.304 -68.2801 566.617 9 9 9
139.752 -22.6759 582.166 8 8 8
147.978 -4.96995 596.551 1 1 1
134.442 -31.2863 576.916 20 20 20
132.246 -33.6825 574.833 8 8 8
130.954 -34.5069 574.074 7 7 7
121.016 -41.708 572.048 146 146 146
120.221 -43.3274 571.689 3 3 3
119.334 -43.6957 571.639 27 27 27
118.966 -43.7395 572.326 169 169 169
120.135 -44.4701 571.698 2 2 2
120.716 -44.1706 572.467 6 6 6
121.743 -43.4411 573.372 217 217 217
135.246 -33.903 576.765 12 12 12
132.834 -36.0575 575.214 8 8 8
134.703 -35.9285 575.773 10 10 10
140.514 -35.3425 581.102 16 16 16
138.768 -38.0228 579.959 9 9 9
145.888 -37.0486 584.955 25 25 25
145.649 -37.264 584.756 26 26 26
142.513 -40.0728 582.65 9 9 9
145.619 -35.7728 584.843 13 13 13
144.501 -36.2546 583.552 26 26 26
142.176 -38.4794 581.913 11 11 11
142.016 -39.6258 581.008 8 8 8
145.282 -39.4366 584.504 8 8 8
145.218 -39.917 584.744 10 10 10
139.089 -48.8404 585.096 12 12 12
136.564 -47.4893 582.786 9 9 9
143.885 -37.5518 583.324 21 21 21
144.295 -39.7706 582.893 8 8 8
145.008 -41.3121 584.482 8 8 8
140.53 -53.2367 585.906 15 15 15
143.806 -50.4759 587.829 7 7 7
137.828 -54.3077 584.104 16 16 16
136.503 -56.0497 584.083 14 14 14
138.438 -52.3689 584.972 17 17 17
139.479 -51.1345 585.391 15 15 15
138.21 -30.4751 579.971 19 19 19
135.094 -35.8615 575.86 7 7 7
133.857 -36.8815 576.783 8 8 8
138.849 -38.7637 579.819 8 8 8
139.988 -38.0511 581.559 9 9 9
141.993 -36.1416 581.845 21 21 21
142.822 -35.2584 582.746 26 26 26
142.799 -35.2616 582.775 26 26 26
142.68 -35.7103 582.845 20 20 20
142.115 -35.8639 582.276 22 22 22
142.394 -36.1703 581.444 19 19 19
142.743 -32.6935 582.679 15 15 15
145.808 -20.7983 588.029 4 4 4
136.271 -28.5019 578.454 19 19 19
136.295 -29.7461 578.017 18 18 18
135.724 -35.8631 576.681 8 8 8
135.318 -37.055 576.242 8 8 8
139.593 -40.6183 581.283 9 9 9
140.716 -39.8139 581.241 8 8 8
145.15 -27.9402 585.308 7 7 7
129.694 -34.2783 573.148 8 8 8
122.845 -41.4228 573.832 6 6 6
122.964 -42.2854 573.706 9 9 9
135.18 -36.8547 576.842 8 8 8
146.702 -22.6269 588.531 5 5 5
134.557 -30.6515 576.272 19 19 19
133.666 -33.1238 576.483 15 15 15
132.681 -35.3149 575.758 8 8 8
126.032 -44.3317 575.812 191 191 191
138.062 -37.0793 578.484 10 10 10
140.363 -34.4548 580.845 22 22 22
142.207 -32.0072 583.358 12 12 12
147.402 -23.3983 589.804 5 5 5
147.641 -4.5409 595.589 3 3 3
139.159 -19.6255 581.194 6 6 6
133.6 -18.7149 575.426 10 10 10
129.881 -23.8833 573.059 13 13 13
128.3 -26.1643 571.213 12 12 12
127.206 -30.4515 571.127 10 10 10
128.244 -30.3772 572.807 11 11 11
129.174 -29.1859 573.7 15 15 15
130.574 -27.7363 574.44 15 15 15
132.246 -26.2758 574.619 13 13 13
134.053 -23.9675 576.547 11 11 11
138.86 -27.4084 579.668 12 12 12
138.93 -29.1305 580.492 17 17 17
138.692 -30.1236 579.891 21 21 21
138.675 -27.4972 579.656 13 13 13
121.062 -41.2323 570.421 40 40 40
129.76 -33.5897 574.433 7 7 7
133.461 -29.1097 575.594 17 17 17
136.178 -25.7784 577.952 13 13 13
139.035 -30.3525 579.856 18 18 18
137.792 -34.8942 579.444 15 15 15
138.62 -34.6382 578.792 16 16 16
139.394 -34.2447 580.88 21 21 21
143.259 -31.1885 583.055 11 11 11
141.432 -34.8996 581.558 25 25 25
138.545 -37.7744 579.33 9 9 9
129.423 -44.3707 577.98 8 8 8
127.292 -46.6082 575.991 206 206 206
125.587 -47.9606 577.163 255 255 255
125.345 -50.4282 575.772 255 255 255
127.251 -49.9436 577.028 255 255 255
133.824 -44.6488 581.342 6 6 6
146.356 -34.7091 585.612 9 9 9
139.096 -30.3502 579.122 19 19 19
131.884 -36.2161 574.797 8 8 8
122.404 -42.9324 573.666 226 226 226
122.372 -44.3241 573.394 11 11 11
124.498 -42.4254 574.536 8 8 8
135.357 -36.3645 578.667 8 8 8
131.102 -36.2069 574.277 7 7 7
136.564 -35.9001 578.845 12 12 12
132.746 -35.0077 575.38 7 7 7
131.366 -35.6929 574.405 8 8 8
120.565 -45.1748 573.402 2 2 2
121.502 -41.286 571.776 9 9 9
116.628 -40.9189 570.276 55 55 55
122.98 -35.9757 570.907 9 9 9
133.714 -26.3457 576.183 13 13 13
131.07 -26.2487 573.135 15 15 15
123.714 -32.3441 569.647 7 7 7
123.904 -32.8516 571.14 7 7 7
125.079 -31.4345 570.106 7 7 7
128.728 -32.9092 572.327 7 7 7
113.784 -41.643 568.096 5 5 5
122.938 -34.1752 569.744 8 8 8
126.398 -31.6731 571.913 8 8 8
132.441 -24.8626 575.388 14 14 14
134.844 -22.3446 577.476 11 11 11
136.079 -27.7655 577.249 15 15 15
130.658 -33.0357 573.743 8 8 8
120.495 -39.1123 571.583 7 7 7
114.758 -42.2298 569.624 20 20 20
114.046 -41.052 567.864 49 49 49
126.032 -31.8656 571.022 7 7 7
129.094 -28.6586 572.925 13 13 13
132.136 -25.4583 574.749 13 13 13
137.604 -16.7784 580.306 6 6 6
130.161 -21.0196 573.26 13 13 13
128.046 -23.5182 571.102 14 14 14
125.941 -25.194 570.342 10 10 10
125.644 -27.3211 570.58 11 11 11
130.55 -22.771 573.602 14 14 14
133.657 -18.9951 576.453 10 10 10
119.919 -31.4935 566.39 7 7 7
108.987 -38.6631 564.37 15 15 15
106.336 -34.7289 562.772 8 8 8
112.806 -30.2775 563.916 8 8 8
115.655 -28.8589 564.325 7 7 7
117.471 -27.1913 565.11 9 9 9
118.648 -25.7141 564.705 9 9 9
119.693 -24.7463 565.331 9 9 9
120.447 -24.384 566.011 9 9 9
120.483 -23.7029 566.568 10 10 10
120.701 -23.4563 566.234 9 9 9
121.192 -22.8862 566.614 10 10 10
121.212 -22.6863 566.777 9 9 9
121.424 -22.6129 567.827 9 9 9
121.641 -22.6571 566.574 9 9 9
121.063 -23.1976 566.765 10 10 10
120.19 -24.0629 566.514 10 10 10
118.992 -24.9825 566.235 10 10 10
117.149 -25.9597 564.535 9 9 9
115.237 -27.5065 563.576 8 8 8
112.909 -28.8561 562.127 7 7 7
101.982 -33.5732 560.018 5 5 5
101.173 -33.3555 558.883 7 7 7
105.519 -31.0634 560.495 8 8 8
110.547 -28.0158 561.083 8 8 8
112.346 -26.1662 562.083 7 7 7
113.998 -24.2336 563.517 9 9 9
116.364 -22.3956 564.671 9 9 9
118.61 -20.3628 565.381 9 9 9
127.018 -14.4428 570.451 18 18 18
130.518 -9.9214 574.97 2 2 2
132.231 -7.78026 576.854 3 3 3
134.498 -13.5457 576.608 7 7 7
125.953 -22.8134 569.364 11 11 11
123.205 -25.5467 568.497 9 9 9
121.018 -27.1834 566.231 8 8 8
118.396 -29.2403 565.287 7 7 7
109.747 -35.598 564.563 7 7 7
106.349 -38.1011 562.756 25 25 25
85.5414 -62.4845 550.468 7 7 7
110.047 -36.5248 564.86 5 5 5
119.554 -29.623 566.066 7 7 7
123.143 -27.1049 569.126 9 9 9
127.725 -22.6591 572.011 13 13 13
143.341 -1.42493 592.753 3 3 3
129.906 -17.0201 572.854 11 11 11
123.538 -23.7659 568.098 10 10 10
119.996 -26.9468 566.507 9 9 9
116.572 -29.6159 564.688 6 6 6
106.587 -35.8349 561.52 6 6 6
105.19 -37.9022 562.276 6 6 6
106.684 -36.1408 562.793 9 9 9
108.056 -34.7147 563.071 8 8 8
109.558 -33.3712 563.609 8 8 8
119.904 -26.6497 566.093 9 9 9
124.042 -23.6493 569.485 11 11 11
128.365 -19.3979 571.46 12 12 12
132.245 -19.2779 574.635 12 12 12
128.021 -24.246 572.221 14 14 14
122.821 -29.2259 567.903 8 8 8
116.175 -33.5063 565.77 8 8 8
112.162 -31.2229 563.801 9 9 9
116.331 -28.888 564.96 8 8 8
119.114 -25.7885 566.037 9 9 9
124.963 -20.6064 569.146 13 13 13
129.41 -16.693 572.915 17 17 17
131.126 -15.949 574.33 12 12 12
130.9 -16.4992 573.546 12 12 12
128.176 -20.3515 571.687 14 14 14
125.499 -24.1396 570.166 10 10 10
121.93 -28.1055 568.404 8 8 8
117.912 -32.0216 565.971 8 8 8
110.684 -37.8637 565.143 33 33 33
-95.0825 -126.788 586.544 7 7 7
109.659 -37.9642 565.665 114 114 114
121.17 -31.0252 567.721 7 7 7
126.281 -27.4881 572.217 12 12 12
130.475 -32.7444 573.095 9 9 9
-102.47 -254.388 666.094 199 199 199
98.8092 -64.8805 559.239 34 34 34
126.211 -42.7813 576.138 6 6 6
138.258 -37.2375 579.224 10 10 10
141.403 -35.0333 581.6 25 25 25
144.697 -38.3564 583.563 19 19 19
130.565 -49.2353 577.731 37 37 37
127.016 -53.0699 575.828 60 60 60
123.345 -57.4074 573.967 18 18 18
119.155 -61.2307 571.439 22 22 22
114.979 -65.9123 567.988 8 8 8
111.094 -69.316 567.278 8 8 8
71.9394 -84.2223 580.155 12 12 12
71.1361 -84.1264 579.699 13 13 13
118.828 -68.1375 572.921 7 7 7
124.245 -63.311 575.187 9 9 9
128.547 -58.6928 577.854 16 16 16
135.128 -51.6612 583.72 18 18 18
124.76 -68.8442 576.891 8 8 8
144.823 -47.3463 587.691 7 7 7
141.524 -50.5861 586.236 12 12 12
55.1466 -93.8319 602.386 75 75 75
54.3396 -93.1184 606.153 38 38 38
54.3017 -93.1987 607.056 47 47 47
139.022 -53.4791 585.38 16 16 16
137.589 -54.4036 583.495 16 16 16
133.418 -60.2543 581.938 10 10 10
125.022 -68.5479 576.409 6 6 6
123.448 -70.0122 575.706 8 8 8
132.174 -61.4871 581.264 9 9 9
136.664 -55.8902 584.336 15 15 15
139.286 -49.1934 584.239 13 13 13
134.173 -54.0757 580.931 16 16 16
131.84 -56.2076 579.387 16 16 16
129.183 -58.539 577.071 16 16 16
124.182 -62.6617 574.672 10 10 10
119.038 -66.5507 572.039 9 9 9
116.473 -67.5816 569.825 8 8 8
114.573 -68.4179 568.32 7 7 7
110.145 -69.5946 566.885 11 11 11
111.146 -66.8504 567.569 48 48 48
113.311 -64.4818 567.887 139 139 139
124.296 -52.3566 574.889 255 255 255
128.963 -47.3881 578.344 36 36 36
140.267 -38.3736 580.818 8 8 8
141.151 -39.2168 581.094 8 8 8
127.088 -50.4946 575.76 255 255 255
124.156 -53.2707 573.966 255 255 255
121.438 -55.8564 572.076 255 255 255
119.301 -57.8586 571.817 254 254 254
106.997 -66.4434 564.038 9 9 9
106.573 -66.8919 563.155 9 9 9
105.702 -67.5375 563.747 8 8 8
102.088 -67.6802 562.46 10 10 10
125.737 -45.1846 576.194 228 228 228
135.41 -37.2868 577.356 8 8 8
134.82 -31.3675 576.099 19 19 19
130.199 -35.8427 573.632 8 8 8
95.5051 -64.1934 555.553 10 10 10
94.4706 -65.3059 556.18 8 8 8
93.4867 -65.7244 555.97 8 8 8
93.0958 -63.5659 555.563 139 139 139
131.502 -31.5925 574.635 15 15 15
128.833 -30.797 572.101 10 10 10
117.491 -39.1634 569.024 6 6 6
92.1094 -63.7339 554.41 7 7 7
90.2956 -64.8377 553.889 7 7 7
-101.346 -254.53 666.23 202 202 202
-104.144 -255.346 664.429 178 178 178
-102.07 -264.97 662.953 187 187 187
122.309 -30.2567 567.938 7 7 7
127.256 -25.5489 573.084 14 14 14
122.494 -28.1878 567.114 8 8 8
117.072 -32.3036 565.671 9 9 9
110.987 -36.5909 564.561 5 5 5
80.8191 -61.4623 547.308 9 9 9
80.1201 -61.9167 546.757 8 8 8
78.9817 -62.7957 547.277 13 13 13
111.414 -32.8346 564.67 8 8 8
115.831 -30.4691 565.836 7 7 7
119.117 -27.2197 566.01 9 9 9
122.77 -24.2349 569.078 10 10 10
132.526 -12.8351 576.28 9 9 9
140.137 1.02572 589.481 2 2 2
130.305 -14.0419 573.057 13 13 13
123.937 -20.5001 568.412 13 13 13
120.654 -23.844 565.654 9 9 9
116.946 -26.9171 564.071 8 8 8
112.908 -29.904 562.375 9 9 9
103.933 -36.1487 559.572 5 5 5
100.937 -35.9586 558.598 1 1 1
104.655 -32.9523 560.904 9 9 9
108.885 -30.6536 561.708 7 7 7
112.729 -27.7145 561.664 7 7 7
115.917 -25.1463 564.54 9 9 9
119.058 -22.5623 566.386 8 8 8
121.699 -19.9055 568.012 13 13 13
123.417 -17.4824 568.606 11 11 11
124.946 -14.9486 569.273 17 17 17
126.09 -13.206 570.527 8 8 8
127.939 -9.93632 574.582 6 6 6
126.437 -11.1954 571.618 6 6 6
124.743 -12.8621 569.716 9 9 9
121.619 -16.3929 566.559 9 9 9
119.983 -17.4731 565.458 10 10 10
118.304 -19.1113 564.869 10 10 10
116.596 -20.4285 563.364 9 9 9
114.62 -22.3242 563.565 8 8 8
112.459 -23.3073 560.79 9 9 9
110.996 -24.3485 560.935 8 8 8
108.919 -25.9558 559.597 8 8 8
106.963 -27.4287 558.498 8 8 8
104.714 -28.6848 558.576 8 8 8
100.187 -31.4868 557.115 8 8 8
97.7865 -32.3427 556.256 7 7 7
99.0949 -31.8806 557.97 8 8 8
109.594 -24.8283 561.546 8 8 8
113.476 -20.7891 562.5 10 10 10
117.464 -17.1022 564.72 8 8 8
120.618 -14.1919 566.694 11 11 11
127.688 -9.30514 573.23 3 3 3
125.044 -14.6624 569.571 18 18 18
119.197 -22.6379 565.602 9 9 9
115.567 -27.0681 562.855 8 8 8
110.389 -31.593 561.901 9 9 9
103.661 -36.4625 560.721 74 74 74
-109.328 -272.561 652.596 184 184 184
-114.445 -253.592 655.062 189 189 189
77.7536 -61.0228 545.566 9 9 9
113.695 -29.6951 564.007 7 7 7
118.302 -26.0708 566.785 9 9 9
122.517 -21.907 567.43 10 10 10
126.306 -18.0278 570.338 10 10 10
129.328 -13.9102 572.755 10 10 10
126.028 -10.5099 570.953 3 3 3
123.787 -13.0206 569.014 9 9 9
121.58 -15.0044 566.504 12 12 12
118.676 -17.0339 564.787 9 9 9
118.441 -17.3308 565.708 9 9 9
118.942 -17.0031 565.331 12 12 12
119.591 -15.6969 566.086 12 12 12
120.753 -14.5041 566.698 11 11 11
121.916 -13.2819 567.707 7 7 7
122.961 -11.7394 568.857 7 7 7
128.789 16.0991 584.092 6 6 6
105.952 -0.552086 563.31 0 0 0
104.536 -3.66826 558.79 5 5 5
102.389 -5.31366 557.434 7 7 7
101.1 -6.45323 555.987 9 9 9
100.821 -5.44198 556.276 4 4 4
101.763 -5.10051 556.417 5 5 5
102.72 -3.75708 557.148 8 8 8
107.155 -2.18947 564.559 0 0 0
123.474 8.50365 578.354 16 16 16
123.832 7.03337 577.728 11 11 11
124.991 5.6619 578.219 24 24 24
126.139 4.79861 578.302 20 20 20
114.101 -0.968667 568.107 2 2 2
127.445 -9.26261 573.123 4 4 4
130.676 -10.7717 575.334 7 7 7
132.148 -25.7717 574.725 14 14 14
132.487 -25.1653 575.525 14 14 14
133.979 -23.8921 575.933 11 11 11
136.369 -22.6937 578.735 9 9 9
97.6254 -64.8055 558.489 57 57 57
129.836 -23.0383 572.909 14 14 14
126.878 -23.3725 570.063 13 13 13
129.032 -20.0136 572.848 13 13 13
134.67 -8.17745 578.504 5 5 5
131.594 -12.2383 574.967 9 9 9
123.786 -19.4977 567.761 13 13 13
120.198 -21.9214 565.843 9 9 9
117.013 -23.6441 564.074 9 9 9
114.788 -25.3119 563.655 8 8 8
113.541 -26.1581 562.272 8 8 8
113.663 -26.0136 562.021 8 8 8
114.566 -25.2695 564.846 9 9 9
116.858 -23.217 564.642 8 8 8
119.363 -20.2129 565.957 10 10 10
122.642 -16.8916 567.759 10 10 10
127.961 -9.54812 573.533 4 4 4
129.801 -17.3424 572.25 10 10 10
128.474 -19.2094 571.304 13 13 13
128.919 -21.0868 572.576 14 14 14
129.427 -21.2675 573.154 12 12 12
129.843 -20.1644 572.704 14 14 14
131.416 -18.6706 573.969 9 9 9
133.014 -19.8834 575.546 11 11 11
131.143 -24.0698 574.036 14 14 14
130.367 -25.5612 572.838 13 13 13
127.773 -29.0639 571.088 11 11 11
126.67 -30.5564 571.421 10 10 10
124.387 -32.5862 569.906 7 7 7
123.762 -33.4196 569.372 7 7 7
124.306 -32.8631 570.171 7 7 7
126.195 -31.6223 571.218 8 8 8
128.199 -28.732 571.892 12 12 12
131.228 -26.2422 574.832 14 14 14
133.44 -28.0741 574.629 17 17 17
131.485 -29.7453 573.105 15 15 15
129.28 -31.8178 572.089 10 10 10
125.136 -34.5252 571.623 8 8 8
125.244 -34.5467 571.341 8 8 8
126.446 -33.6928 571.067 7 7 7
128.125 -31.8145 572.26 9 9 9
133.731 -25.3995 576.185 12 12 12
134.51 -22.1647 576.76 11 11 11
129.532 -27.9568 572.692 14 14 14
129.543 -28.0634 573.201 15 15 15
133.536 -24.4872 575.883 13 13 13
148.42 -4.7877 597.129 4 4 4
129.439 -30.2091 572.514 13 13 13
121.471 -33.404 568.783 9 9 9
118.032 -34.8089 567.325 8 8 8
115.598 -35.5043 567.254 7 7 7
120.179 -32.2229 568.321 8 8 8
124.285 -29.4952 569.894 8 8 8
128.062 -25.0346 570.643 12 12 12
125.126 -27.7943 569.414 10 10 10
121.529 -30.4634 567.355 8 8 8
121.963 -29.798 567.664 8 8 8
123.673 -28.788 568.792 9 9 9
126.109 -26.6491 570.058 11 11 11
128.726 -24.0853 572.51 14 14 14
134.147 -17.4539 576.825 8 8 8
127.555 -25.007 570.072 12 12 12
124.786 -26.9361 568.516 9 9 9
122.044 -28.4011 567.916 9 9 9
120.103 -29.0836 567.446 8 8 8
117.815 -28.9973 565.794 7 7 7
117.672 -29.2229 565.554 6 6 6
119.302 -28.2659 566.743 8 8 8
121.347 -26.7847 567.804 9 9 9
126.411 -21.7898 569.894 13 13 13
128.3 -19.644 571.715 12 12 12
132.439 -15.7941 574.974 10 10 10
132.211 -15.7692 575.315 11 11 11
133.433 -14.3277 576.879 8 8 8
115.694 -42.2635 569.555 4 4 4
127.745 -31.877 571.934 10 10 10
129.255 -26.9042 572.171 15 15 15
123.909 -30.5562 568.556 8 8 8
111.904 -34.9863 565.491 8 8 8
114.751 -32.5392 565.429 8 8 8
118.922 -29.2592 567.618 7 7 7
123.112 -24.4045 568.487 9 9 9
127.423 -18.5384 571.661 9 9 9
124.653 6.73734 578.019 14 14 14
124.595 7.2076 578.593 23 23 23
116.946 17.5954 577.627 9 9 9
98.4976 14.5914 562.677 7 7 7
98.6934 21.5508 574.352 13 13 13
125.011 -20.5323 568.717 13 13 13
122.608 -21.7401 568.219 10 10 10
120.812 -22.1038 566.461 10 10 10
119.427 -22.08 565.105 9 9 9
119.282 -21.4997 564.514 9 9 9
119.085 -21.7564 566.56 9 9 9
119.667 -21.7197 565.633 9 9 9
120.36 -21.4435 565.215 9 9 9
120.25 -21.8186 566.1 9 9 9
120.537 -22.3476 566.299 9 9 9
120.428 -23.1679 566.339 9 9 9
120.253 -23.4558 566.825 10 10 10
121.473 -23.4027 567.136 9 9 9
122.601 -22.9089 566.918 8 8 8
123.591 -22.7379 569.667 10 10 10
125.273 -22.0582 568.978 12 12 12
126.739 -21.7834 570.973 13 13 13
128.74 -21.4204 572.16 14 14 14
130.527 -20.4797 575.502 12 12 12
146.243 -16.9702 589.46 5 5 5
130.436 -23.31 572.433 14 14 14
125.628 -22.1387 568.41 11 11 11
124.186 -20.2939 567.784 13 13 13
126.393 -9.52655 572.041 2 2 2
126.887 22.6554 585.519 6 6 6
122.533 21.7976 581.83 9 9 9
101.614 14.8941 564.608 12 12 12
44.9946 4.90316 519.649 9 9 9
34.9637 8.0311 512.852 7 7 7
31.2726 9.57926 510.546 6 6 6
29.2308 11.5831 509.753 6 6 6
26.3239 14.2237 508.39 6 6 6
23.8704 16.8306 507.603 4 4 4
19.4087 17.5557 503.46 1 1 1
17.4794 13.9211 501.311 5 5 5
18.7172 13.4063 502.885 6 6 6
21.809 14.0776 505.597 5 5 5
50.5701 22.9116 532.221 4 4 4
59.6665 25.3801 539.026 5 5 5
125.338 -10.0986 571.876 3 3 3
127.747 -11.4703 572.189 5 5 5
128.347 -12.4741 572.693 9 9 9
125.003 -14.8207 569.568 34 34 34
123.822 -15.2784 568.291 24 24 24
121.914 -15.8385 567.72 15 15 15
121.348 -16.2436 567.18 14 14 14
120.573 -17.0506 565.835 10 10 10
119.702 -17.4104 566.579 9 9 9
119.64 -17.4257 566.252 9 9 9
119.378 -16.9337 566.6 10 10 10
121.862 -11.6163 568.047 6 6 6
119.305 -12.2598 566.102 8 8 8
119.005 -13.6024 565.653 10 10 10
118.139 -16.4728 564.691 9 9 9
117.609 -18.1918 563.437 10 10 10
116.582 -19.8706 563.544 9 9 9
115.694 -21.8077 562.822 9 9 9
113.978 -23.6794 562.98 9 9 9
109.171 -26.8132 559.602 8 8 8
106.309 -28.3627 558.59 9 9 9
100.274 -29.765 556.556 9 9 9
95.996 -29.7562 554.649 8 8 8
95.5982 -29.3129 554.681 9 9 9
95.8431 -28.8509 554.237 9 9 9
97.9809 -27.1427 554.43 9 9 9
99.0997 -26.2909 554.709 9 9 9
99.8879 -25.6454 554.848 9 9 9
100.804 -22.5705 554.231 9 9 9
100.338 -21.1556 553.519 10 10 10
99.5904 -19.078 553.971 11 11 11
98.8209 -17.2717 554.169 11 11 11
97.7223 -13.4916 552.489 16 16 16
97.5933 -11.5954 553.029 12 12 12
97.5896 -8.3817 553.355 7 7 7
97.4839 -6.5927 554.59 8 8 8
98.086 -4.45511 554.327 8 8 8
98.401 -2.21946 554.877 7 7 7
98.6165 0.378005 556.778 4 4 4
98.4374 7.4533 561.088 0 0 0
90.2495 10.3707 554.561 1 1 1
92.1542 7.69622 554.26 2 2 2
92.218 5.51539 554.287 3 3 3
92.3822 1.11943 552.989 6 6 6
91.1895 -1.07851 552.659 5 5 5
91.0187 -2.57884 551.644 5 5 5
90.5813 -4.04306 550.334 8 8 8
91.7773 -5.61906 550.755 7 7 7
93.9164 -6.85587 552.736 6 6 6
96.6138 -8.33174 553.312 7 7 7
100.389 -10.0483 555.396 8 8 8
103.813 -12.7128 556.792 10 10 10
103.84 -14.4456 556.673 12 12 12
98.314 -18.1454 553.367 11 11 11
86.4784 -21.096 544.89 7 7 7
51.2817 -17.8859 526.745 61 61 61
45.192 -9.76371 518.848 7 7 7
41.6369 -8.49291 516.145 9 9 9
37.8363 -8.38123 514.725 8 8 8
31.9252 -7.84143 511.304 7 7 7
27.0717 -8.5529 509.142 8 8 8
27.6386 -8.7745 509.584 9 9 9
28.2883 -8.91321 510.103 7 7 7
30.9535 -9.10183 512.092 7 7 7
36.8867 -8.19195 515.482 7 7 7
40.357 -7.69158 516.249 7 7 7
42.7312 -7.1882 516.983 9 9 9
44.4782 -6.65924 518.22 8 8 8
45.5892 -5.78393 520.191 10 10 10
46.483 -4.83246 519.087 15 15 15
46.7004 -4.10291 520.026 22 22 22
46.9848 -3.60369 519.945 29 29 29
45.7572 -4.44201 519.218 15 15 15
45.0784 -5.81649 518.653 8 8 8
43.6807 -6.47392 516.623 9 9 9
42.8818 -7.69172 517.397 7 7 7
41.6657 -9.38719 518.187 7 7 7
40.4316 -10.9638 518.218 8 8 8
37.7571 -13.8623 516.802 33 33 33
37.0847 -10.2771 515.935 7 7 7
39.6406 -8.75512 515.874 7 7 7
42.6154 -6.89626 517.559 8 8 8
45.8074 -6.17756 518.34 8 8 8
53.932 -4.14758 526.087 17 17 17
58.8867 -4.23629 530.31 10 10 10
62.1414 -4.22865 532.222 9 9 9
65.988 -4.63893 534.4 9 9 9
83.4636 -4.23581 547.375 7 7 7
93.0041 -2.84066 553.004 5 5 5
110.849 -9.17133 561.175 9 9 9
110.381 -10.4064 561.002 7 7 7
108.568 -13.9701 558.604 8 8 8
107.295 -15.6065 558.565 11 11 11
105.591 -17.3009 557.109 8 8 8
103.864 -18.8358 555.929 4 4 4
99.0902 -22.2402 554.424 10 10 10
98.2951 -23.4854 553.181 8 8 8
97.7667 -26.0919 553.513 9 9 9
98.0526 -22.9414 552.951 8 8 8
97.6764 -21.6685 552.318 5 5 5
98.0387 -19.9236 553.237 9 9 9
101.059 -13.443 554.921 15 15 15
102.906 -12.3673 555.35 13 13 13
104.983 -11.0701 557.935 9 9 9
107.351 -10.3203 558.83 11 11 11
129.32 -21.1721 572.672 13 13 13
115.95 -18.1628 562.351 10 10 10
112.553 -17.1129 561.565 11 11 11
106.334 -15.2221 557.528 11 11 11
103.654 -13.728 556.984 11 11 11
101.364 -12.7849 556.031 15 15 15
100.435 -12.3931 555.804 15 15 15
99.2548 -11.9468 554.273 16 16 16
96.2329 -11.5989 552.37 11 11 11
95.9368 -11.4033 552.21 10 10 10
94.9296 -11.4377 551.839 9 9 9
93.5431 -11.3995 551.07 12 12 12
92.3453 -11.1596 550.455 11 11 11
91.6727 -11.2631 550.327 10 10 10
89.09 -11.6148 548.298 12 12 12
80.5057 -13.1368 542.611 11 11 11
76.0456 -17.0229 538.91 8 8 8
76.2858 -17.2271 539.107 8 8 8
76.9303 -17.4195 539.94 7 7 7
77.3597 -16.1239 539.982 9 9 9
77.0901 -15.4443 540.45 11 11 11
76.8053 -12.5995 539.857 10 10 10
76.7059 -11.3218 539.888 11 11 11
76.7772 -9.94087 540.284 9 9 9
77.119 -9.79021 540.085 10 10 10
76.9749 -9.51753 540.388 9 9 9
77.1698 -9.41937 540.997 9 9 9
77.8106 -9.2668 541.496 9 9 9
84.8212 -11.8058 545.911 11 11 11
85.6489 -12.158 546.522 10 10 10
87.2076 -12.4534 547.436 10 10 10
90.8714 -12.683 549.378 12 12 12
92.7511 -12.89 550.949 13 13 13
95.1196 -12.9838 552.205 14 14 14
97.456 -13.6602 553.458 17 17 17
104.863 -14.2257 557.906 12 12 12
111.536 -16.5225 560.616 10 10 10
113.043 -17.4935 562.216 11 11 11
114.014 -18.2618 561.59 9 9 9
113.893 -19.6182 562.273 8 8 8
112.758 -20.9353 561.6 9 9 9
111.415 -20.9153 560.908 9 9 9
110.403 -20.792 560.106 9 9 9
109.028 -20.4149 558.721 8 8 8
107.748 -20.3357 558.355 8 8 8
104.183 -19.5011 555.836 7 7 7
102.8 -19.2002 556.047 3 3 3
101.949 -19.1692 554.022 9 9 9
98.3956 -19.481 553.853 10 10 10
85.8615 -19.7534 545.345 7 7 7
85.4322 -19.8242 545.361 7 7 7
84.2772 -20.022 544.302 7 7 7
84.1218 -19.6202 544.328 8 8 8
83.8227 -19.9432 544.188 7 7 7
83.1883 -19.8264 543.882 7 7 7
82.1187 -19.3378 543.057 7 7 7
80.8436 -19.1886 542.335 7 7 7
80.7322 -15.7041 542.445 11 11 11
84.2045 -14.7526 545.306 2 2 2
85.5913 -14.0341 546.064 10 10 10
87.1849 -13.8343 546.629 11 11 11
89.0962 -13.6588 547.366 13 13 13
92.0639 -14.7011 550.438 12 12 12
92.9187 -15.0738 549.708 12 12 12
93.0781 -15.6825 550.227 13 13 13
93.2084 -17.2746 550.048 3 3 3
90.8698 -21.8367 549.274 7 7 7
91.261 -22.475 549.072 6 6 6
91.6894 -22.7253 549.316 7 7 7
91.8043 -23.6835 550.035 9 9 9
90.0636 -29.469 551.752 7 7 7
89.1936 -30.2146 551.322 18 18 18
90.0323 -28.8413 551.586 7 7 7
90.83 -27.5826 551.182 8 8 8
91.3057 -25.9919 550.568 8 8 8
92.8759 -23.7364 549.467 9 9 9
92.5022 -17.2453 549.679 2 2 2
91.7841 -15.5837 549.675 9 9 9
91.5789 -15.1648 549.231 8 8 8
91.3222 -13.8673 549.495 12 12 12
91.1597 -13.3586 549.512 12 12 12
91.2391 -12.7003 549.947 13 13 13
91.5928 -11.6811 549.452 10 10 10
91.761 -11.1111 550.244 10 10 10
91.5993 -10.6694 549.562 11 11 11
91.2333 -10.4721 549.992 9 9 9
91.1326 -10.5108 550.16 9 9 9
92.1069 -11.3065 549.987 11 11 11
94.0074 -13.1472 551.744 16 16 16
96.0554 -14.9788 552.611 13 13 13
95.7182 -15.2635 552.395 11 11 11
96.0044 -15.6957 551.856 11 11 11
95.8518 -15.751 551.67 10 10 10
95.6066 -15.6668 552.305 10 10 10
96.6966 -15.2825 551.716 11 11 11
96.2603 -14.6867 552.658 16 16 16
97.0693 -14.2517 552.305 15 15 15
96.9348 -13.9942 553.598 12 12 12
96.8069 -11.6638 552.865 12 12 12
96.8373 -10.052 552.534 10 10 10
95.5074 -8.19635 553.226 8 8 8
94.9528 -7.458 552.862 6 6 6
94.198 -7.81849 552.767 7 7 7
93.9336 -7.72587 552.036 7 7 7
93.1617 -9.0104 551.199 8 8 8
92.7662 -9.99835 550.777 10 10 10
92.0902 -11.2652 550.482 10 10 10
90.5651 -13.9727 548.261 13 13 13
84.6505 -22.4001 545.684 9 9 9
83.0157 -28.9799 546.971 4 4 4
89.5611 -31.7925 552.187 32 32 32
91.5712 -25.7548 550.348 9 9 9
92.0236 -13.8052 550.206 14 14 14
92.3977 -3.96767 552.279 6 6 6
92.9494 0.88629 553.451 6 6 6
93.1023 5.76101 555.029 3 3 3
95.1991 25.2957 565.29 6 6 6
95.4817 24.979 564.974 7 7 7
95.4399 23.9525 564.434 5 5 5
99.8304 -5.94036 555.224 7 7 7
100.431 -8.79811 555.553 9 9 9
101.597 -13.9303 556.147 15 15 15
102.523 -18.9414 556.219 4 4 4
102.721 -21.8763 555.003 11 11 11
104.4 -28.8579 558.074 9 9 9
106.041 -34.4557 562.222 7 7 7
107.726 -18.5137 558.076 8 8 8
106.364 -12.5012 558.506 9 9 9
105.75 -8.79212 558.183 8 8 8
103.415 -3.67519 558.143 5 5 5
98.8418 0.0945915 556.116 4 4 4
99.1659 -1.30488 556.506 6 6 6
101.302 -7.58139 556.152 9 9 9
102.718 -12.1557 555.993 16 16 16
102.753 -13.9168 555.33 14 14 14
103.457 -18.1011 556.259 8 8 8
103.424 -20.0135 557.643 10 10 10
103.205 -22.7988 556.498 8 8 8
103.107 -22.7993 556.589 9 9 9
102.705 -23.2329 556.495 8 8 8
102.526 -23.4769 556.77 8 8 8
102.894 -23.0401 555.785 8 8 8
102.68 -22.7261 556.326 8 8 8
102.847 -20.4451 555.795 5 5 5
100.963 -12.1511 554.698 13 13 13
100.235 -9.04921 555.419 9 9 9
100.523 -2.4764 557.18 7 7 7
108.399 16.8574 574.65 1 1 1
113.546 13.0745 575.033 1 1 1
118.532 -1.08857 571.662 5 5 5
132.392 -18.6589 575.662 12 12 12
130.247 -18.0847 572.29 9 9 9
128.146 -16.0047 571.613 22 22 22
107.694 2.4705 564.806 10 10 10
112.395 1.50769 568.486 22 22 22
114.152 0.736616 568.852 7 7 7
116.002 -1.14567 569.656 1 1 1
113.332 -0.686779 567.45 7 7 7
111.781 0.484084 567.428 34 34 34
99.0086 12.8981 562.276 18 18 18
85.2966 13.8024 553.557 1 1 1
87.3039 12.2071 553.606 2 2 2
89.2339 10.3327 554.179 2 2 2
112.547 1.44763 568.894 21 21 21
113.251 18.2623 577.533 5 5 5
109.438 21.9843 575.371 41 41 41
105.551 25.3662 572.593 23 23 23
101.06 29.2138 569.738 14 14 14
115.517 12.3536 576.201 5 5 5
112.22 31.4582 578.229 8 8 8
106.41 25.5362 573.975 6 6 6
118.223 33.6191 583.744 9 9 9
111.798 35.1513 579.191 1 1 1
-47.8465 86.7126 468.013 8 8 8
-70.8972 77.0896 443.474 4 4 4
-71.9398 77.1647 441.197 12 12 12
-75.223 55.5907 430.234 4 4 4
-70.5411 44.5301 431.149 4 4 4
-69.1616 44.2893 431.867 4 4 4
-68.519 44.4827 433.394 3 3 3
-66.8255 44.9548 433.317 4 4 4
-66.0659 45.04 434.063 5 5 5
-65.9534 45.5585 435.48 4 4 4
-64.2029 45.5038 436.312 5 5 5
-64.6047 45.6105 437.021 5 5 5
-43.8582 41.8648 455.445 0 0 0
-41.133 40.583 457.095 6 6 6
-39.6252 39.1372 458.868 10 10 10
-37.6276 37.4618 460.437 14 14 14
-35.9266 35.4274 462.234 11 11 11
-34.2606 33.3209 464.454 10 10 10
-32.0448 31.1449 465.334 9 9 9
-30.3841 29.0337 467.212 7 7 7
-28.5121 27.0629 467.399 7 7 7
-26.7293 25.3208 468.733 7 7 7
-23.7339 22.9352 470.991 5 5 5
-21.0469 21.2557 473.19 8 8 8
-19.6225 20.8606 473.751 5 5 5
-19.4816 21.0051 474.319 5 5 5
-18.7576 20.9585 474.948 6 6 6
-17.4538 20.8469 474.987 5 5 5
-16.2786 20.7726 476.298 6 6 6
-15.452 20.6206 476.544 6 6 6
-15.3258 20.6561 477.886 5 5 5
-14.5964 20.7165 478.111 5 5 5
-13.8951 21.195 478.063 4 4 4
-14.5199 21.8057 477.649 5 5 5
-14.9262 22.8388 478.667 3 3 3
-14.9868 23.5675 478.418 4 4 4
