ply
format ascii 1.0
element vertex 1392
property float x
property float y
property float z
property uchar red
property uchar green
property uchar blue
end_header
35.2585 31.8596 398.75 177 177 177 
34.1566 31.7831 399.176 176 176 176 
33.6549 31.6905 398.342 161 161 161 
32.922 31.66 398.063 97 97 97 
-1.76775 33.4404 383.225 63 63 63 
46.3171 35.4091 439.993 42 42 42 
47.9979 35.8333 436.746 52 52 52 
48.0711 35.939 435.448 47 47 47 
59.1569 41.9447 407.847 90 90 90 
60.2483 42.1666 407.592 127 127 127 
60.6142 42.7321 407.939 121 121 121 
60.5865 44.2694 406.034 109 109 109 
59.2503 45.3949 404.59 104 104 104 
56.2976 45.802 402.87 101 101 101 
53.0255 46.1512 400.753 82 82 82 
49.643 45.5017 393.08 77 77 77 
44.9858 46.2656 393.684 88 88 88 
40.8611 46.9938 390.802 112 112 112 
38.869 47.7902 387.606 114 114 114 
37.1768 49.0788 385.998 116 116 116 
38.097 50.6762 386.7 108 108 108 
40.4202 52.4459 388.57 93 93 93 
43.5739 53.9721 391.026 69 69 69 
47.1367 54.9729 394.298 61 61 61 
48.8132 55.8914 396.531 60 60 60 
50.6286 55.9071 397.121 58 58 58 
50.6242 55.3684 397.545 59 59 59 
50.3369 54.4731 397.525 60 60 60 
49.2792 53.4985 395.96 59 59 59 
46.9663 52.4973 393.864 72 72 72 
44.1312 51.3745 391.667 86 86 86 
40.466 50.2275 388.355 35 35 35 
36.763 48.878 386.29 110 110 110 
32.6875 47.973 383.548 114 114 114 
28.6831 47.5112 381.372 95 95 95 
26.5246 47.5614 380.078 65 65 65 
25.8133 47.4168 379.305 45 45 45 
25.5275 47.6331 378.757 51 51 51 
25.4597 47.8166 378.351 85 85 85 
24.9398 47.6809 379.283 47 47 47 
24.547 47.2863 377.319 48 48 48 
8.75159 43.6575 395.323 1 1 1 
6.99658 40.3635 368.264 21 21 21 
5.86216 40.2201 366.909 125 125 125 
4.18111 40.2763 365.248 157 157 157 
2.15192 40.5324 364.438 170 170 170 
0.066285 40.582 363.657 167 167 167 
-1.41194 40.8199 363.111 210 210 210 
-85.4617 29.7238 570.424 55 55 55 
-86.5736 28.2571 576.706 55 55 55 
-86.327 26.8555 582.482 38 38 38 
-66.4026 23.7064 599.94 30 30 30 
14.8729 28.3638 407.525 101 101 101 
16.6564 35.138 377.141 64 64 64 
15.0052 36.3138 375.221 126 126 126 
14.6787 37.6002 374.449 25 25 25 
4.17064 46.6604 363.181 104 104 104 
1.90823 47.4005 362.929 122 122 122 
0.625932 48.1408 360.869 129 129 129 
-0.201975 49.1175 360.815 137 137 137 
-1.4021 50.6397 359.533 168 168 168 
-1.33183 52.3189 358.511 63 63 63 
0.0508714 54.154 358.013 13 13 13 
1.54366 55.4404 358.584 10 10 10 
3.72051 57.1331 360.023 66 66 66 
6.14197 58.8126 361.752 85 85 85 
8.86328 60.2968 362.736 153 153 153 
11.3382 62.0946 365.33 0 0 0 
13.7318 63.4892 367.264 0 0 0 
10.8021 64.0839 366.184 0 0 0 
6.89469 62.611 361.969 83 83 83 
6.59199 62.7496 361.781 96 96 96 
6.02694 62.7742 361.423 97 97 97 
6.28171 62.9619 361.327 89 89 89 
6.04443 63.053 361.645 89 89 89 
6.95533 62.9369 362.047 89 89 89 
11.1822 59.4684 364.02 71 71 71 
10.802 58.3956 363.704 110 110 110 
10.5591 57.3026 364.055 125 125 125 
9.87251 56.0429 363.743 95 95 95 
10.1007 54.3952 363.613 83 83 83 
9.51474 53.7264 364.899 92 92 92 
8.23325 52.9037 364.376 101 101 101 
7.79098 51.8997 363.413 109 109 109 
7.1903 51.3316 363.239 131 131 131 
6.37229 50.8859 363.305 159 159 159 
4.70591 50.7839 363.377 162 162 162 
4.13145 50.1542 361.711 145 145 145 
2.50588 49.9258 362.335 137 137 137 
1.18564 49.3656 360.738 127 127 127 
-0.0645137 48.9347 359.723 137 137 137 
-1.17619 48.6992 360.431 154 154 154 
-2.03691 48.5486 359.81 62 62 62 
-2.07603 48.5995 359.62 41 41 41 
-2.00378 48.9048 359.514 24 24 24 
-1.93293 50.1239 359.703 38 38 38 
1.37248 48.2687 361.136 132 132 132 
3.86475 46.443 364.609 119 119 119 
6.42804 39.794 368.166 32 32 32 
5.51163 37.7607 367.978 115 115 115 
0.599813 35.3756 375.836 126 126 126 
-2.25013 33.9564 378.012 135 135 135 
-7.97327 32.2938 388.68 48 48 48 
-10.5826 33.3426 385.879 38 38 38 
-8.76052 33.9311 384.916 57 57 57 
-2.12405 37.181 371.548 107 107 107 
-1.80004 38.0252 369.375 93 93 93 
-1.99316 38.9834 367.103 115 115 115 
-2.03947 39.9247 364.288 105 105 105 
-4.66853 51.0129 357.349 25 25 25 
-4.96164 51.3375 357.456 31 31 31 
-4.43523 51.4118 356.936 46 46 46 
-4.75461 49.9796 358.059 49 49 49 
-5.78416 38.6953 367.151 53 53 53 
-4.8811 38.3904 368.165 80 80 80 
-4.46483 38.2122 368.925 96 96 96 
-3.55596 37.6761 369.864 100 100 100 
-2.99195 37.1097 371.215 105 105 105 
-3.07864 36.6842 373.091 111 111 111 
-3.10586 35.595 375.554 106 106 106 
-3.09366 35.1919 376.842 100 100 100 
-2.50355 34.8397 376.833 106 106 106 
-1.86777 34.7261 377.497 142 142 142 
-1.23975 34.7248 377.873 141 141 141 
-1.13321 34.6807 378.712 137 137 137 
-0.592936 34.5319 378.545 124 124 124 
-0.0441035 34.5684 379.09 119 119 119 
0.280539 34.3656 379.493 110 110 110 
0.61715 34.3705 379.216 109 109 109 
1.26587 34.5049 379.233 111 111 111 
2.17439 34.4906 379.527 100 100 100 
2.81325 34.4828 378.724 103 103 103 
3.44446 34.6972 378.586 103 103 103 
3.79752 34.6965 378.691 90 90 90 
4.0186 34.8984 378.409 88 88 88 
3.80558 34.695 378.204 100 100 100 
3.39703 34.7486 378.264 109 109 109 
2.74467 34.7117 377.802 116 116 116 
2.24586 34.7935 377.871 120 120 120 
2.16864 34.9915 377.507 123 123 123 
2.20292 35.2097 376.756 129 129 129 
2.17462 35.4094 376.079 132 132 132 
2.46418 35.8067 374.634 123 123 123 
2.80184 36.145 373.586 114 114 114 
2.81939 36.6192 372.684 92 92 92 
3.10319 37.6946 366.643 97 97 97 
3.14694 38.7489 366.259 108 108 108 
2.79273 39.5975 365.48 141 141 141 
2.19208 40.442 364.874 142 142 142 
2.18425 41.1525 364.206 133 133 133 
1.0256 42.011 364 93 93 93 
0.668677 42.7563 363.849 49 49 49 
0.080233 44.1015 362.217 81 81 81 
0.0904069 43.8084 362.762 67 67 67 
0.389309 43.5846 362.656 69 69 69 
1.29554 43.6671 362.589 86 86 86 
2.67404 43.4319 362.196 163 163 163 
1.83672 43.6883 362.754 161 161 161 
2.59587 43.6676 364.108 148 148 148 
2.53431 43.5579 363.741 146 146 146 
3.30561 43.4432 362.839 145 145 145 
3.99217 43.023 364.049 138 138 138 
4.25525 42.9429 364.043 132 132 132 
4.7364 42.9561 365.099 128 128 128 
5.90568 42.5767 367.223 19 19 19 
6.49073 42.1596 366.666 90 90 90 
7.23598 39.9768 368.264 47 47 47 
7.41936 39.8618 368.431 39 39 39 
7.67484 38.7148 368.237 129 129 129 
7.43794 38.4452 368.601 147 147 147 
7.74777 37.9312 368.79 118 118 118 
7.79537 37.5122 369.924 90 90 90 
7.81099 36.7423 370.366 59 59 59 
8.84419 36.3674 370.693 81 81 81 
7.29465 36.2008 371.006 77 77 77 
7.85891 37.2742 370.751 54 54 54 
8.03994 37.6234 369.554 98 98 98 
8.11718 38.4434 369.294 144 144 144 
8.36539 39.2862 368.921 121 121 121 
8.38936 40.1847 368.728 32 32 32 
8.85091 44.55 370.839 4 4 4 
9.62884 46.2714 370.359 4 4 4 
11.9859 47.7226 368.78 18 18 18 
11.5452 47.5828 367.969 52 52 52 
11.2293 47.8565 367.625 101 101 101 
10.311 48.1783 367.601 102 102 102 
10.0251 48.3389 366.826 107 107 107 
9.22232 48.4584 367.281 102 102 102 
8.81783 48.5838 366.791 108 108 108 
9.12759 48.4136 366.237 111 111 111 
8.26842 48.2741 366.462 110 110 110 
7.97179 48.0488 366.917 98 98 98 
7.62492 47.8894 365.902 100 100 100 
7.35833 47.6914 366.162 76 76 76 
7.7507 47.1714 365.246 58 58 58 
7.60659 47.4029 365.993 27 27 27 
5.67212 43.3788 365.594 51 51 51 
5.04565 42.9914 365.47 46 46 46 
4.71699 41.4967 365.795 138 138 138 
3.41558 40.5298 365.342 167 167 167 
3.20335 39.8127 366.721 182 182 182 
4.11767 38.9049 366.756 126 126 126 
3.11312 35.6986 375.059 122 122 122 
2.61476 35.034 377.455 129 129 129 
7.81194 37.5356 369.777 55 55 55 
8.37235 39.1921 368.589 128 128 128 
14.2939 46.9147 371.443 3 3 3 
16.8663 49.0036 371.76 101 101 101 
20.2221 51.2343 371.661 107 107 107 
22.4046 52.9159 373.408 30 30 30 
23.9118 54.9724 375.337 70 70 70 
25.5442 56.3347 377.028 61 61 61 
27.2552 57.6013 377.581 54 54 54 
27.0855 58.5709 378.452 49 49 49 
27.0201 59.0023 378.367 50 50 50 
26.3782 59.1904 378.459 49 49 49 
25.2702 59.2242 377.066 52 52 52 
24.3278 59.2534 376.47 52 52 52 
23.3787 59.2723 375.603 51 51 51 
23.1028 59.2082 375.623 60 60 60 
21.8752 59.1883 373.375 85 85 85 
20.3637 58.8743 371.969 157 157 157 
18.5749 58.2033 371.14 100 100 100 
17.3386 57.6798 368.627 73 73 73 
15.608 57.2501 368.4 89 89 89 
15.1754 56.635 367.109 100 100 100 
14.1058 56.1609 367.769 97 97 97 
13.1362 55.35 366.82 83 83 83 
12.0927 54.7343 365.602 80 80 80 
11.2537 53.8952 365.655 97 97 97 
9.958 52.8259 364.96 110 110 110 
9.265 51.8452 364.153 81 81 81 
8.47996 50.5616 364.307 146 146 146 
7.46882 49.3613 364.107 131 131 131 
6.74244 48.2984 365.186 113 113 113 
6.71322 47.6959 365.237 105 105 105 
6.66065 47.0073 365.601 46 46 46 
5.36035 43.6817 364.718 93 93 93 
4.83425 42.482 365.049 124 124 124 
4.26685 41.899 364.793 135 135 135 
4.08876 41.3651 365.244 151 151 151 
3.71871 41.0604 364.934 173 173 173 
4.04121 40.8905 365.112 167 167 167 
3.25119 40.8395 365.787 168 168 168 
4.09292 41.1206 365.628 162 162 162 
4.32194 41.2857 365.257 148 148 148 
4.13504 41.4873 366.18 140 140 140 
4.61962 41.5132 365.312 133 133 133 
4.97174 41.6527 365.446 136 136 136 
4.81673 41.6441 366.068 140 140 140 
5.07771 42.0993 365.802 134 134 134 
5.36679 42.4231 366.538 81 81 81 
6.23593 42.0942 366.988 78 78 78 
5.64964 43.2045 366.338 57 57 57 
4.07046 42.3214 365.232 128 128 128 
2.75512 41.9466 364.024 175 175 175 
1.16137 41.5845 363.465 61 61 61 
0.189265 41.4864 362.625 59 59 59 
-0.228313 52.6854 358.391 21 21 21 
0.369043 52.4856 358.222 82 82 82 
1.22024 52.2013 358.662 138 138 138 
1.5735 52.0032 359.723 160 160 160 
1.67378 51.866 360.274 160 160 160 
1.83646 51.7046 360.48 170 170 170 
2.29683 51.2838 361.616 182 182 182 
2.48065 50.7321 361.253 172 172 172 
2.23923 50.2464 361.712 155 155 155 
1.95516 49.711 362.427 131 131 131 
2.07794 49.1906 361.023 127 127 127 
1.81201 48.8972 361.528 123 123 123 
2.2027 48.5655 361.819 116 116 116 
2.72463 48.3341 362.236 122 122 122 
3.06537 48.44 362.65 120 120 120 
2.19626 48.7559 362.337 116 116 116 
2.17729 49.0914 361.897 115 115 115 
1.56323 49.5779 361.431 127 127 127 
0.738052 50.2061 361.378 136 136 136 
1.20546 50.6475 359.765 154 154 154 
0.610734 51.4415 359.223 199 199 199 
-0.567263 52.103 358.36 171 171 171 
-0.667527 52.41 357.264 30 30 30 
-3.15148 54.9099 357.395 20 20 20 
-4.49536 66.0573 359.39 20 20 20 
-4.21888 64.4612 358.759 12 12 12 
-4.24384 63.6572 358.827 31 31 31 
-2.37881 55.4122 356.486 12 12 12 
-2.54893 54.7487 357.317 15 15 15 
-1.44202 51.4339 358.172 29 29 29 
-1.43716 50.9122 358.965 140 140 140 
-0.842086 50.4354 359.315 180 180 180 
-0.268682 49.701 359.98 149 149 149 
0.942441 49.124 359.785 139 139 139 
0.142078 48.8254 361.591 132 132 132 
0.363605 48.5157 361.172 130 130 130 
1.55655 48.2129 361.374 126 126 126 
2.43915 48.2893 361.531 120 120 120 
3.66009 48.3566 362.757 118 118 118 
5.14136 48.6391 362.922 116 116 116 
6.21093 49.0064 364.767 117 117 117 
7.61163 49.2282 364.991 115 115 115 
7.94367 49.505 365.303 114 114 114 
9.05485 49.9399 364.936 136 136 136 
9.26752 50.2916 366.502 156 156 156 
9.70873 50.6531 365.008 158 158 158 
9.13954 50.8371 365.53 155 155 155 
9.47882 51.1427 365.458 143 143 143 
9.10514 51.2313 364.726 123 123 123 
8.823 51.1457 364.671 130 130 130 
8.74607 50.9788 364.032 137 137 137 
8.14882 50.901 363.974 134 134 134 
7.3087 50.9833 363.946 158 158 158 
5.80814 51.0019 363.787 169 169 169 
5.97749 51.0786 362.233 155 155 155 
4.55036 51.4818 362.14 158 158 158 
4.55671 51.7981 361.386 141 141 141 
3.66025 52.3935 360.841 128 128 128 
3.62432 52.8364 360.142 121 121 121 
2.1834 53.6717 359.724 107 107 107 
2.39224 54.2753 359.135 103 103 103 
1.82866 54.5875 359.802 100 100 100 
2.67122 55.4392 358.93 82 82 82 
2.70218 56.0674 359.056 54 54 54 
3.29794 56.3578 359.387 77 77 77 
2.98834 56.8493 359.551 66 66 66 
2.3426 57.5857 359.764 52 52 52 
3.59028 57.9639 359.518 59 59 59 
2.92765 58.4179 359.496 70 70 70 
2.46015 59.0898 360.051 80 80 80 
2.42643 59.3153 359.985 80 80 80 
2.56657 59.6407 358.461 79 79 79 
0.76009 60.3616 359.832 73 73 73 
1.97267 60.5013 357.472 74 74 74 
-0.287764 61.3955 358.346 34 34 34 
-1.46084 62.0463 359.193 19 19 19 
-0.316385 62.409 358.269 39 39 39 
-2.38256 63.1597 358.697 64 64 64 
-2.74203 63.7788 358.583 63 63 63 
-1.34383 63.8761 357.38 48 48 48 
-2.71707 64.8735 358.476 33 33 33 
-2.71873 65.1939 358.942 24 24 24 
-2.49428 66.1565 358.941 57 57 57 
-2.40388 66.0022 359.183 64 64 64 
-2.09159 66.0367 359.584 82 82 82 
-1.53361 66.1671 359.418 75 75 75 
-1.47193 66.3604 359.533 72 72 72 
-1.25304 66.2359 359.33 73 73 73 
-1.24441 66.0152 359.198 81 81 81 
-1.8082 65.7357 359.578 80 80 80 
-1.86915 65.3508 358.882 58 58 58 
-3.29921 64.9476 359.458 39 39 39 
-3.62392 64.4022 358.919 22 22 22 
-3.42606 63.6078 358.854 39 39 39 
-4.80734 63.3714 359.076 24 24 24 
-2.36449 55.9969 356.119 13 13 13 
-2.38471 55.3771 356.407 11 11 11 
-2.40032 54.5853 356.755 16 16 16 
-0.811889 53.2222 358.21 11 11 11 
-0.530798 52.2943 358.568 69 69 69 
-0.191906 51.8221 359.253 186 186 186 
1.53061 51.2247 359.136 201 201 201 
0.97968 50.6456 360.39 181 181 181 
1.50901 50.0289 360.603 144 144 144 
2.0845 49.5686 360.785 133 133 133 
2.22802 49.0867 362.311 126 126 126 
2.57591 48.849 362.686 120 120 120 
3.67354 48.6751 362.688 116 116 116 
4.20185 48.4212 361.898 116 116 116 
4.13495 48.455 364.659 114 114 114 
5.87302 48.6348 364.091 120 120 120 
5.55622 49.1135 364.364 117 117 117 
6.45421 49.6607 364.19 126 126 126 
7.05389 49.926 364.751 133 133 133 
8.2269 50.1722 364.986 140 140 140 
8.27744 50.704 365.397 156 156 156 
10.3048 50.7919 364.787 149 149 149 
11.2195 50.9961 364.798 124 124 124 
10.7421 51.3749 366.525 126 126 126 
11.881 51.6447 366.355 76 76 76 
11.6518 51.9913 366.937 79 79 79 
11.855 52.2603 366.263 98 98 98 
12.3574 52.7522 367.133 105 105 105 
13.3214 52.9835 366.332 100 100 100 
13.589 53.6309 367.67 92 92 92 
14.5003 54.1195 367.946 92 92 92 
15.6633 54.4884 367.952 96 96 96 
14.7406 55.219 367.875 87 87 87 
14.3772 55.7815 367.47 76 76 76 
13.8324 56.3493 367.889 80 80 80 
13.1368 56.739 366.545 107 107 107 
12.8935 57.0304 364.253 113 113 113 
11.8118 57.8113 364.5 122 122 122 
10.5902 58.4966 363.72 117 117 117 
9.85017 59.1404 362.564 114 114 114 
9.27063 60.0303 362.759 109 109 109 
9.068 60.9742 362.565 89 89 89 
8.76916 61.4541 362.429 69 69 69 
7.76997 61.8572 361.379 106 106 106 
7.66131 62.4924 361.119 95 95 95 
6.52227 62.9505 361.192 94 94 94 
4.77323 63.7034 361.036 69 69 69 
4.4874 64.1149 361.121 67 67 67 
3.55647 64.5611 360.892 69 69 69 
2.88544 64.9462 359.862 72 72 72 
1.4974 65.2784 360.401 76 76 76 
0.252979 65.7939 360.187 76 76 76 
1.30908 65.6967 358.607 76 76 76 
-1.19858 66.3075 359.38 73 73 73 
-2.18681 66.4198 359.271 72 72 72 
-2.21077 66.4004 358.785 36 36 36 
-4.24323 66.6911 358.992 20 20 20 
-2.05276 49.056 359.501 50 50 50 
-1.11785 48.5202 359.992 112 112 112 
-0.493888 47.8378 360.646 138 138 138 
-0.203834 47.1721 360.954 149 149 149 
0.961868 46.548 361.372 140 140 140 
1.65272 46.0763 362.823 135 135 135 
2.56836 45.5964 363.441 126 126 126 
2.77676 45.4581 362.833 128 128 128 
4.11109 45.7512 364.198 113 113 113 
4.66154 45.6771 364.504 94 94 94 
6.4379 46.986 365.21 31 31 31 
6.6796 47.4622 365.128 52 52 52 
6.57421 47.9408 365.512 106 106 106 
7.28518 48.466 364.694 113 113 113 
7.42915 49.3651 365.712 112 112 112 
8.0149 50.1614 365.564 136 136 136 
8.25813 50.9116 364.555 153 153 153 
8.56782 51.7671 364.074 117 117 117 
9.05875 52.6851 363.514 101 101 101 
8.55663 53.8185 364.566 91 91 91 
9.15952 55.0085 363.74 91 91 91 
8.62933 56.144 364.573 95 95 95 
9.74449 57.4437 363.945 79 79 79 
9.42367 58.6812 363.3 130 130 130 
9.09031 59.471 363.43 137 137 137 
8.52555 61.1055 362.595 93 93 93 
8.64201 62.2318 362.319 25 25 25 
7.71892 63.0779 361.542 43 43 43 
6.90576 63.6588 361.634 76 76 76 
4.85234 64.8818 361.531 85 85 85 
3.37396 65.7785 361.748 65 65 65 
2.80921 66.3045 361.777 66 66 66 
2.04935 66.9506 360.918 57 57 57 
1.44085 67.6486 360.512 60 60 60 
1.08852 68.0335 360.04 55 55 55 
0.516326 68.4488 360.219 53 53 53 
-0.317378 68.899 360.646 50 50 50 
-0.286902 68.9271 360.863 48 48 48 
1.09416 68.7491 360.455 48 48 48 
2.02566 68.5746 360.687 47 47 47 
2.32089 68.4234 361.011 50 50 50 
3.22554 67.9296 361.001 49 49 49 
3.56147 67.3221 361.441 53 53 53 
4.42882 66.6974 361.121 49 49 49 
4.15143 65.7697 361.177 62 62 62 
3.95835 64.9835 361.648 65 65 65 
4.92303 63.6898 360.533 66 66 66 
4.13054 62.8259 361.115 72 72 72 
4.13106 61.6681 360.692 77 77 77 
3.29354 60.7807 360.337 84 84 84 
3.30871 59.8493 360.156 79 79 79 
3.22035 58.6243 360.118 69 69 69 
3.28504 57.5061 360.269 79 79 79 
3.55056 56.4174 359.995 68 68 68 
2.71344 55.0931 360.43 99 99 99 
3.54016 54.1933 359.747 103 103 103 
3.91866 53.1044 360.581 109 109 109 
4.90137 52.3319 361.931 117 117 117 
5.24744 51.745 362.819 124 124 124 
7.56155 51.1045 363.363 147 147 147 
8.25011 50.621 364.746 153 153 153 
9.52091 49.7827 366.264 146 146 146 
10.428 49.0317 367.315 117 117 117 
11.1138 48.3769 368.307 110 110 110 
11.428 48.0502 368.516 93 93 93 
12.4571 47.7902 368.897 38 38 38 
12.9805 47.3341 369.34 21 21 21 
13.34 47.5026 370.531 27 27 27 
13.4949 47.6127 369.86 17 17 17 
13.4941 47.8978 369.762 27 27 27 
13.6801 47.7103 368.796 56 56 56 
13.8789 48.3188 369.168 94 94 94 
14.1522 49.2268 369.373 114 114 114 
15.6001 49.8892 369.228 126 126 126 
15.7093 50.6773 369.452 110 110 110 
16.6874 51.2906 369.918 78 78 78 
17.6217 52.0399 370.368 90 90 90 
18.0149 52.7845 371.183 88 88 88 
19.4445 53.46 371.055 77 77 77 
19.5219 54.4338 371.854 85 85 85 
19.8415 55.4672 371.943 71 71 71 
20.8441 56.2152 373.025 65 65 65 
20.8651 56.9505 373.193 65 65 65 
21.1305 57.7623 373.187 63 63 63 
21.4195 58.2614 373.202 59 59 59 
21.7306 58.8228 373.415 83 83 83 
22.2166 59.0874 372.736 143 143 143 
21.8661 59.3756 372.969 91 91 91 
21.3281 59.5752 372.704 191 191 191 
20.4067 59.4752 372.573 183 183 183 
19.7471 59.6843 371.868 37 37 37 
19.4757 59.8209 371.505 27 27 27 
16.2243 58.208 368.45 66 66 66 
15.6668 57.7161 368.082 74 74 74 
15.3481 56.8146 368.273 96 96 96 
15.2747 56.0022 367.869 84 84 84 
15.1717 54.807 367.197 87 87 87 
13.4143 53.9806 367.264 95 95 95 
12.2944 53.1059 368.054 99 99 99 
12.3293 52.0962 367.568 102 102 102 
11.5533 51.0651 366.807 110 110 110 
11.7959 50.3031 366.405 136 136 136 
11.1649 49.6557 366.582 135 135 135 
10.3712 49.2546 367.22 123 123 123 
9.18421 48.5444 366.603 109 109 109 
9.69577 47.9957 366.745 98 98 98 
10.2336 47.5876 366.137 77 77 77 
8.90969 47.7076 366.903 55 55 55 
9.1248 47.1791 367.093 41 41 41 
9.62333 46.4443 368.827 4 4 4 
9.1957 44.7737 371.042 6 6 6 
18.1054 47.8551 373.742 30 30 30 
18.6363 48.9806 372.803 103 103 103 
18.9588 50.0285 372.268 117 117 117 
19.5153 51.5728 371.703 100 100 100 
19.6079 53.0162 372.141 78 78 78 
20.7749 54.5696 372.172 83 83 83 
20.7578 56.4064 372.377 68 68 68 
20.9705 58.256 373.697 63 63 63 
22.1116 59.8718 373.904 94 94 94 
22.8089 61.6361 374.861 83 83 83 
23.6928 63.4127 375.404 59 59 59 
23.8535 65.3011 376.657 29 29 29 
24.2201 67.0255 377.954 27 27 27 
24.8697 68.5498 378.868 24 24 24 
22.9887 63.5792 375.198 7 7 7 
23.3267 63.0286 375.133 20 20 20 
23.4152 62.3093 375.485 59 59 59 
23.3496 61.8538 375.297 59 59 59 
23.3893 61.2788 375.12 84 84 84 
23.3636 60.6814 375.847 43 43 43 
23.1489 60.4616 375.94 43 43 43 
23.7353 60.0605 376.079 53 53 53 
24.3789 60.1079 376.234 52 52 52 
24.6857 59.9109 376.427 51 51 51 
24.6188 59.738 376.386 51 51 51 
24.0801 59.673 377.067 49 49 49 
24.3092 59.5394 376.551 49 49 49 
24.7183 59.7463 376.995 49 49 49 
24.8188 59.4016 377.844 49 49 49 
25.9291 59.4281 376.916 50 50 50 
26.0762 59.6647 377.935 51 51 51 
26.3928 60.071 378.306 49 49 49 
26.5085 60.6034 379.253 48 48 48 
27.0998 61.0723 379.357 43 43 43 
27.4002 61.5992 379.467 49 49 49 
27.9828 62.4527 379.689 65 65 65 
27.5425 63.4866 380.595 43 43 43 
28.457 64.4925 380.716 37 37 37 
28.891 65.5638 380.347 34 34 34 
28.8253 67.1525 381.143 54 54 54 
29.2313 69.0297 383.054 9 9 9 
23.1973 69.0338 378.498 4 4 4 
23.7713 68.4256 378.153 12 12 12 
24.7482 68.0395 378.473 16 16 16 
24.4571 67.9032 378.75 27 27 27 
25.362 67.6224 378.899 27 27 27 
25.5615 67.4428 379.865 26 26 26 
26.4221 67.4009 379.888 25 25 25 
26.8378 67.4423 380.761 22 22 22 
27.7657 67.3504 381.026 24 24 24 
27.7998 67.3318 381.282 28 28 28 
28.1331 67.4533 381.314 22 22 22 
28.6364 67.4208 380.817 21 21 21 
28.1097 67.9162 381.467 16 16 16 
28.7157 68.2974 381.651 14 14 14 
28.5493 69.2393 383.183 10 10 10 
26.5914 70.0462 383.13 3 3 3 
26.091 69.5365 381.209 13 13 13 
25.596 70.0011 381.135 11 11 11 
25.4685 70.5947 381.531 3 3 3 
23.7415 70.2472 379.945 5 5 5 
22.9079 69.8261 378.801 1 1 1 
21.3623 68.4601 374.562 1 1 1 
21.0925 68.2835 374.772 0 0 0 
22.935 67.199 377.911 4 4 4 
23.5737 66.3119 377.959 13 13 13 
24.4442 65.9747 378.105 24 24 24 
24.8655 65.2149 378.834 25 25 25 
25.2139 64.679 378.891 36 36 36 
25.8353 63.8085 379.438 39 39 39 
26.4281 62.8597 379.256 46 46 46 
27.8372 61.8489 378.384 59 59 59 
27.4329 61.4367 380.051 51 51 51 
28.7216 60.9753 380.478 56 56 56 
28.9392 60.5662 381.705 48 48 48 
30.4083 59.9361 381.673 42 42 42 
30.9669 59.4176 382.877 39 39 39 
31.6575 58.6988 382.293 44 44 44 
32.1433 58.0802 382.786 50 50 50 
32.5273 57.5668 383.232 49 49 49 
32.8844 56.6236 383.931 53 53 53 
33.7547 55.7747 383.324 52 52 52 
34.5061 54.2328 384.034 63 63 63 
34.4538 52.8845 383.865 69 69 69 
34.4533 52.3499 383.61 74 74 74 
34.4454 52.1692 383.491 78 78 78 
34.2957 51.4431 383.34 90 90 90 
33.7934 50.9858 383.219 96 96 96 
33.2264 50.6025 383.459 103 103 103 
32.8376 50.2173 383.192 108 108 108 
31.9025 50.4241 382.446 108 108 108 
32.0717 50.331 381.74 102 102 102 
31.3838 50.3651 381.214 101 101 101 
30.8002 50.5439 381.058 105 105 105 
30.7083 50.5932 380.486 105 105 105 
29.3313 50.796 380.24 101 101 101 
29.1233 50.9211 380.348 97 97 97 
29.0457 50.6647 379.589 97 97 97 
29.4027 50.3687 380.221 103 103 103 
28.7104 50.2474 380.048 105 105 105 
28.8386 49.8863 380.64 107 107 107 
29.4244 49.5817 380.134 107 107 107 
29.2055 49.4037 381.102 105 105 105 
29.442 49.2357 380.823 108 108 108 
30.5197 49.1767 381.331 109 109 109 
30.6706 49.188 382.229 112 112 112 
31.6783 49.0793 381.595 108 108 108 
32.1441 49.0701 382.574 111 111 111 
32.1427 49.2618 382.448 112 112 112 
31.7979 49.526 382.058 110 110 110 
31.807 49.8142 382.316 112 112 112 
31.4326 49.7175 381.813 104 104 104 
30.6345 49.9578 382.121 109 109 109 
30.6761 50.2335 380.715 107 107 107 
30.7557 50.618 380.558 104 104 104 
30.0596 51.0488 380.493 98 98 98 
30.5268 52.0195 380.915 90 90 90 
30.7833 52.7482 380.826 74 74 74 
31.683 53.7089 381.033 67 67 67 
32.3478 54.7406 381.951 68 68 68 
33.0886 56.0959 382.419 55 55 55 
33.5116 57.4414 383.216 51 51 51 
34.013 58.5625 384.676 48 48 48 
34.1644 59.6548 384.68 40 40 40 
34.2983 60.498 385.339 66 66 66 
34.2348 61.3637 384.994 83 83 83 
34.4647 62.2215 384.618 57 57 57 
33.8003 63.1878 384.354 40 40 40 
33.5817 64.2505 385.068 33 33 33 
33.174 65.073 385.237 30 30 30 
33.2508 65.7674 384.82 65 65 65 
33.2261 66.4114 384.725 68 68 68 
33.2957 67.3693 384.827 29 29 29 
32.8871 67.9653 385.503 8 8 8 
32.3416 68.4223 385.916 6 6 6 
32.1957 68.3776 385.671 7 7 7 
31.7299 68.5291 385.024 7 7 7 
31.5052 68.5076 384.614 8 8 8 
30.8586 68.4032 384.388 8 8 8 
30.6782 67.6302 382.833 10 10 10 
29.8945 66.7388 381.721 44 44 44 
28.7754 66.414 381.871 65 65 65 
28.4069 65.6467 381.44 54 54 54 
27.4619 64.8418 380.944 32 32 32 
27.5581 63.9721 379.432 39 39 39 
26.1685 63.445 379.923 39 39 39 
26.3445 62.3615 379.036 59 59 59 
26.3333 61.7014 378.503 48 48 48 
26.214 60.6521 377.834 48 48 48 
25.978 59.7898 377.773 48 48 48 
25.3736 58.6545 377.594 51 51 51 
25.7634 57.3594 377.543 58 58 58 
25.3787 56.5121 377.103 61 61 61 
25.3885 55.7723 375.926 61 61 61 
26.1271 54.9853 377.759 65 65 65 
26.1145 54.3743 377.356 68 68 68 
27.1601 53.8178 378.052 69 69 69 
28.4094 53.4333 378.779 66 66 66 
29.4286 53.1186 380.046 69 69 69 
30.7359 52.8438 381.059 73 73 73 
31.8135 52.4737 381.84 73 73 73 
33.3412 52.3561 382 74 74 74 
33.8048 52.0241 383.133 82 82 82 
34.608 51.8786 383.972 85 85 85 
34.9381 51.8606 384.426 83 83 83 
35.4275 52.0031 385.193 89 89 89 
36.2471 51.8855 385.067 91 91 91 
36.1863 51.8714 386.344 77 77 77 
37.2786 51.7808 385.837 64 64 64 
38.5178 51.955 387.257 82 82 82 
40.1118 51.9475 387.559 88 88 88 
40.8758 52.366 388.635 99 99 99 
41.9394 52.9549 389.751 80 80 80 
42.6955 53.8008 390.442 69 69 69 
42.9909 54.6503 391.098 64 64 64 
43.5468 55.5967 392.169 59 59 59 
43.8038 56.4402 392.275 57 57 57 
44.6251 57.4013 393.276 50 50 50 
45.1077 58.3077 392.887 42 42 42 
46.0086 59.0661 392.895 64 64 64 
45.8275 60.5035 393.324 90 90 90 
45.9432 61.8275 394.416 41 41 41 
46.9872 63.1739 395.373 29 29 29 
47.384 64.5275 395.636 81 81 81 
47.7632 66.4305 398.047 6 6 6 
34.4198 68.3697 389.035 3 3 3 
34.4801 67.3484 386.555 7 7 7 
34.3058 65.8273 386.122 70 70 70 
33.861 64.6556 385.731 40 40 40 
33.4953 63.6157 385.029 33 33 33 
33.0364 62.1513 383.922 44 44 44 
32.9196 60.8786 383.317 81 81 81 
32.3599 59.8802 383.301 61 61 61 
32.0684 58.7121 383.044 37 37 37 
32.0477 57.5384 382.795 49 49 49 
31.6246 56.5816 383.283 50 50 50 
31.5331 55.6464 382.753 54 54 54 
31.9555 54.4862 383.223 67 67 67 
31.9226 53.4192 381.389 66 66 66 
32.3938 52.5612 382.218 76 76 76 
32.4997 52.2946 382.269 80 80 80 
33.2445 51.6373 382.922 87 87 87 
34.2436 51.558 383.455 89 89 89 
35.9446 51.3301 384.625 101 101 101 
37.7541 51.609 386.296 65 65 65 
39.8498 51.9827 387.602 86 86 86 
41.9693 52.5116 389.462 86 86 86 
44.0533 53.218 392.031 76 76 76 
46.6074 53.98 394.402 65 65 65 
49.6208 54.9531 395.789 62 62 62 
51.8994 55.8617 397.969 57 57 57 
53.9383 56.818 399.73 46 46 46 
55.322 57.7843 400.891 47 47 47 
55.991 58.2945 401.68 41 41 41 
56.2394 59.8823 403.252 65 65 65 
56.3279 60.8949 402.84 39 39 39 
55.7142 61.6015 403.34 31 31 31 
55.0291 62.64 403.211 51 51 51 
54.4644 63.665 401.752 65 65 65 
53.0408 64.9329 401.563 10 10 10 
50.8256 65.6923 401.065 6 6 6 
48.8974 65.9576 399.425 6 6 6 
46.513 66.8815 398.643 4 4 4 
32.2271 68.9212 386.728 3 3 3 
32.2061 67.9938 385.225 7 7 7 
32.324 66.5671 383.417 44 44 44 
31.7435 65.7417 383.51 63 63 63 
31.544 64.6019 384.191 31 31 31 
31.3748 63.4904 383.125 36 36 36 
32.0101 62.2268 382.787 46 46 46 
31.3182 61.0578 384.053 71 71 71 
32.3373 60.0304 383.029 62 62 62 
32.3176 58.7409 382.799 38 38 38 
32.5971 57.7758 382.327 49 49 49 
32.3186 56.8177 382.517 50 50 50 
32.4386 55.9649 383.001 53 53 53 
33.5183 54.927 383.279 60 60 60 
34.6489 53.9118 383.134 65 65 65 
35.2365 53.3355 384.697 74 74 74 
36.5717 52.4962 385.399 81 81 81 
37.7614 51.703 386.535 71 71 71 
39.4113 50.8178 387.267 65 65 65 
40.3154 50.2887 387.554 52 52 52 
41.4512 49.5353 387.954 99 99 99 
41.9142 49.3343 389.386 100 100 100 
42.5791 48.9778 390.037 112 112 112 
43.0613 49.0292 390.613 115 115 115 
43.1139 49.6196 391.096 113 113 113 
44.6258 50.0749 391.966 125 125 125 
45.8759 50.9367 392.778 102 102 102 
48.3247 51.7803 394.312 88 88 88 
49.9407 52.7413 396.118 74 74 74 
52.0323 53.6816 397.451 66 66 66 
53.5076 54.8097 398.991 59 59 59 
54.5783 55.9868 401.021 57 57 57 
56.2252 56.8327 401.628 42 42 42 
57.1585 57.8875 402.21 48 48 48 
56.4515 58.1181 402.047 41 41 41 
56.7716 59.4774 402.231 91 91 91 
56.2839 60.293 402.864 51 51 51 
55.9648 61.0843 402.674 37 37 37 
55.4775 61.6779 402.266 29 29 29 
54.7339 62.3315 401.737 42 42 42 
53.9508 62.8233 401.229 65 65 65 
52.8505 63.1319 400.834 69 69 69 
52.1279 63.3295 400.108 71 71 71 
50.8807 63.5156 398.294 78 78 78 
48.8166 63.6989 397.621 83 83 83 
46.9597 63.7982 395.774 79 79 79 
45.1301 63.9716 394.666 71 71 71 
45.0891 63.9677 393.833 59 59 59 
43.1148 64.3115 391.845 64 64 64 
41.9824 64.7186 391.807 70 70 70 
41.9248 65.019 391.276 75 75 75 
41.5634 65.1407 391.325 71 71 71 
41.4569 65.3147 390.709 71 71 71 
41.1992 65.5856 390.954 54 54 54 
41.2045 65.5015 391.075 54 54 54 
40.9732 65.1575 391.509 70 70 70 
40.476 64.9663 390.675 72 72 72 
40.1931 64.6954 390.744 67 67 67 
40.0401 64.3479 390.059 48 48 48 
39.083 64.1039 389.858 32 32 32 
38.3149 63.303 388.668 30 30 30 
38.0662 62.6343 387.618 28 28 28 
36.9503 61.8587 387.16 53 53 53 
37.4684 60.8585 386.8 89 89 89 
36.5273 60.4182 386.593 87 87 87 
35.6615 60.0412 386.781 72 72 72 
35.5792 59.3705 386.201 44 44 44 
35.5487 58.8282 385.763 39 39 39 
35.5449 58.0937 385.412 43 43 43 
34.9504 57.5313 385.874 50 50 50 
35.4027 57.2474 385.868 51 51 51 
37.1621 56.516 385.952 53 53 53 
37.0557 56.5787 387.207 37 37 37 
38.2221 56.6677 388.107 48 48 48 
39.4591 56.4961 388.229 57 57 57 
40.4863 56.4032 389.102 55 55 55 
41.6635 56.3647 390.357 56 56 56 
42.5565 56.5385 390.385 54 54 54 
43.3504 56.6964 391.453 55 55 55 
44.0885 56.6088 392.001 52 52 52 
44.4666 56.7614 392.606 53 53 53 
44.4029 57.0172 392.59 55 55 55 
45.4044 56.9665 392.822 51 51 51 
45.8802 57.0682 393.643 49 49 49 
45.758 57.3119 394.71 50 50 50 
46.8863 57.3644 394.34 46 46 46 
46.9815 57.5724 394.825 44 44 44 
47.2899 57.8517 394.919 41 41 41 
47.7903 58.2048 395.84 46 46 46 
48.5937 58.3766 395.216 55 55 55 
48.8461 58.9687 396.345 70 70 70 
49.115 59.6414 396.46 100 100 100 
49.8896 60.4448 396.956 91 91 91 
50.3649 61.2401 397.797 41 41 41 
50.4522 62.204 398.824 35 35 35 
51.4825 63.0232 399.138 51 51 51 
51.8585 63.9222 399.508 76 76 76 
52.2607 65.1007 400.483 12 12 12 
46.4743 66.2133 397.428 6 6 6 
46.1507 65.3447 395.208 11 11 11 
45.4379 64.7623 394.124 71 71 71 
45.0165 64.2948 393.666 78 78 78 
45.1383 63.8783 394.342 54 54 54 
44.7902 63.4426 395.259 35 35 35 
45.9883 62.5009 394.824 31 31 31 
45.0228 61.6454 393.834 36 36 36 
43.9812 60.7282 392.88 60 60 60 
43.3028 59.5473 392.347 99 99 99 
42.3704 58.6625 392.051 55 55 55 
41.9217 57.4163 391.555 48 48 48 
41.2306 56.7176 390.591 53 53 53 
41.0078 55.9038 389.532 54 54 54 
40.8341 55.0606 389.521 59 59 59 
41.3292 54.3704 389.169 61 61 61 
42.1265 54.1489 389.496 63 63 63 
43.0704 53.7646 391.055 71 71 71 
44.0545 53.5874 392.545 67 67 67 
45.979 52.9621 393.197 68 68 68 
46.877 52.7662 393.576 78 78 78 
47.2483 52.1021 394.056 80 80 80 
48.3876 51.6642 394.643 79 79 79 
49.4214 51.15 394.993 85 85 85 
49.7423 50.669 396.741 89 89 89 
51.0159 50.0614 396.853 103 103 103 
52.0404 49.6741 397.422 113 113 113 
52.8429 49.134 398.119 132 132 132 
53.1721 48.6563 398.491 126 126 126 
54.06 48.3677 399.5 118 118 118 
55.4043 47.8173 400.188 104 104 104 
56.6094 47.0231 400.356 99 99 99 
56.7381 46.6644 402.193 95 95 95 
57.0938 46.1161 402.715 101 101 101 
57.1846 45.7529 403.247 99 99 99 
58.4691 45.5318 403.083 69 69 69 
58.5338 45.4537 403.826 98 98 98 
59.0824 45.5468 404.519 102 102 102 
59.4402 45.5462 404.955 101 101 101 
60.7048 45.8386 404.958 99 99 99 
61.1074 46.0668 406.415 101 101 101 
62.6844 46.4434 406.077 103 103 103 
62.8211 46.7552 406.965 97 97 97 
64.2334 47.1991 407.079 102 102 102 
64.3635 47.5446 407.823 106 106 106 
64.6125 48.1801 407.596 106 106 106 
64.2769 48.8918 407.317 101 101 101 
64.4632 49.4707 407.025 90 90 90 
63.6742 50.046 406.487 82 82 82 
62.8462 50.7323 406.684 73 73 73 
62.6495 51.4197 406.224 73 73 73 
61.7534 52.2101 406.193 72 72 72 
61.9362 53.2668 405.888 64 64 64 
61.8797 54.0061 404.583 56 56 56 
61.2219 55.4099 405.775 51 51 51 
61.2112 56.5074 405.794 52 52 52 
61.1149 57.4643 405.578 46 46 46 
60.4852 58.6663 405.985 47 47 47 
60.1672 59.6048 406.231 45 45 45 
59.7289 60.5543 405.818 29 29 29 
59.6145 61.3026 404.821 26 26 26 
58.3227 62.0733 405.283 43 43 43 
58.1291 62.5649 404.409 65 65 65 
57.3706 63.166 403.519 64 64 64 
56.6951 63.5928 403.691 43 43 43 
56.3653 63.8919 402.928 19 19 19 
55.4538 64.2163 402.617 16 16 16 
54.4103 63.9992 402.025 28 28 28 
53.5931 63.8834 401.339 47 47 47 
52.8404 63.4005 400.565 73 73 73 
52.1906 63.019 400.17 70 70 70 
51.3645 62.5289 399.221 44 44 44 
50.8507 61.7986 398.352 36 36 36 
49.9649 61.184 398.024 38 38 38 
49.2721 60.3705 396.478 63 63 63 
48.8476 59.6125 395.972 104 104 104 
47.7873 58.8755 397.293 90 90 90 
47.6161 58.3597 395.424 57 57 57 
46.9375 57.6465 395.032 41 41 41 
46.3173 56.9037 394.729 47 47 47 
46.5084 56.3066 394.001 57 57 57 
46.4347 55.4624 393.782 57 57 57 
46.2616 54.9115 393.796 60 60 60 
46.4464 54.3665 393.575 61 61 61 
46.6386 53.6004 394.257 63 63 63 
47.5215 53.0524 394.028 69 69 69 
47.9733 52.4763 394.433 74 74 74 
49.3227 51.6195 395.03 81 81 81 
50.062 51.152 395.677 91 91 91 
51.2165 50.5189 396.504 90 90 90 
52.5073 50.1088 398.158 96 96 96 
53.7818 49.7989 398.428 110 110 110 
55.1374 49.6188 399.996 116 116 116 
56.4246 49.1815 400.627 114 114 114 
57.1894 49.2489 401.137 99 99 99 
57.7709 49.2119 402.277 106 106 106 
58.5854 49.2469 403.039 114 114 114 
59.7636 49.2083 403.043 76 76 76 
60.1729 49.4173 403.499 69 69 69 
61.6195 49.6243 404.045 74 74 74 
61.7215 49.9811 404.58 76 76 76 
61.964 50.5229 405.802 73 73 73 
63.516 50.7697 406.612 71 71 71 
64.5767 51.116 406.311 72 72 72 
65.3899 51.7438 407.67 75 75 75 
68.0813 53.5549 410.742 0 0 0 
70.8327 55.1095 411.992 7 7 7 
71.7861 60.2823 415.101 3 3 3 
66.5844 64.8387 410.911 0 0 0 
66.4407 64.8845 410.179 0 0 0 
65.7707 65.0302 410.877 0 0 0 
65.9974 65.1139 410.358 0 0 0 
65.6372 65.0995 410.734 0 0 0 
65.5346 65.1484 410.84 0 0 0 
66.4039 64.728 410.696 0 0 0 
65.9121 64.6661 411.169 0 0 0 
66.4054 64.271 409.931 0 0 0 
65.9072 64.2949 410.601 0 0 0 
65.8177 63.4289 410.124 0 0 0 
64.9862 63.0404 410.727 0 0 0 
65.2706 61.9705 409.974 0 0 0 
65.0759 61.2785 410.093 0 0 0 
65.0896 60.7894 409.718 0 0 0 
65.8442 60.1329 409.546 0 0 0 
67.0237 59.5342 410.934 1 1 1 
68.098 58.9241 410.961 10 10 10 
78.68 57.2989 418.708 3 3 3 
78.9813 58.2096 419.549 0 0 0 
81.5202 59.2551 423.192 2 2 2 
82.0255 59.5516 424.075 16 16 16 
74.0184 69.1956 417.741 0 0 0 
56.9975 64.6372 405.851 6 6 6 
57.4606 63.8095 404.579 13 13 13 
57.2657 62.7336 404.496 66 66 66 
57.6889 61.9664 404.109 53 53 53 
58.0636 61.1848 404.305 30 30 30 
58.5245 60.2244 404.597 38 38 38 
58.9873 59.4235 404.84 49 49 49 
59.2791 58.5044 404.943 78 78 78 
60.1753 57.544 405.577 38 38 38 
60.2728 56.5323 405.894 47 47 47 
60.775 55.3732 405.69 49 49 49 
61.6094 54.3323 406.053 52 52 52 
61.8827 53.2784 405.938 61 61 61 
62.8984 52.3963 405.931 67 67 67 
63.9793 51.2385 406.726 72 72 72 
64.9021 50.6337 407.461 62 62 62 
65.4352 50.0297 408.342 49 49 49 
66.3015 49.5239 408.131 58 58 58 
67.5629 49.0823 409.025 79 79 79 
68.3698 48.6788 409.537 97 97 97 
69.018 48.6386 409.833 103 103 103 
69.7569 48.2216 410.23 100 100 100 
70.4498 48.3375 410.975 96 96 96 
71.1739 48.32 411.508 93 93 93 
71.2852 48.2615 411.226 96 96 96 
71.6959 49.2347 412.163 68 68 68 
72.9513 51.4026 413.773 0 0 0 
73.4962 52.271 413.865 0 0 0 
74.1243 53.8656 415.09 3 3 3 
73.5734 59.9185 416.355 3 3 3 
73.3434 61.721 415.708 2 2 2 
45.3508 65.7793 395.289 6 6 6 
45.0773 64.4778 393.641 78 78 78 
45.0111 63.3544 394.893 35 35 35 
44.9563 62.3635 393.293 31 31 31 
44.8991 61.3481 393.953 41 41 41 
45.1501 60.0676 393.54 90 90 90 
45.6057 59.077 394.317 95 95 95 
46.5443 57.8847 394.374 44 44 44 
46.9457 56.9656 394.664 46 46 46 
47.2337 56.1402 394.651 56 56 56 
48.381 55.2779 395.466 58 58 58 
48.9797 54.3755 395.679 63 63 63 
50.2136 53.7228 396.09 66 66 66 
50.4498 53.0052 396.28 65 65 65 
50.2455 52.3464 396.846 71 71 71 
51.2717 51.8121 397.183 80 80 80 
52.5003 51.1725 396.991 88 88 88 
52.378 50.8699 397.88 84 84 84 
52.6728 50.7428 398.598 85 85 85 
53.1445 50.6496 398.662 87 87 87 
53.809 50.6836 398.64 86 86 86 
54.8287 50.6862 399.036 88 88 88 
55.0622 51.2113 400.18 82 82 82 
55.86 51.6835 400.917 83 83 83 
56.4933 52.1523 401.144 76 76 76 
57.2134 52.9372 401.469 69 69 69 
57.505 53.5563 401.81 64 64 64 
57.6878 54.5528 402.654 62 62 62 
57.0319 55.653 402.971 55 55 55 
58.0164 56.585 402.921 45 45 45 
57.2892 57.7176 402.986 40 40 40 
57.3397 58.2725 401.544 50 50 50 
56.3901 60.1859 403.066 63 63 63 
56.0786 61.9086 403.465 31 31 31 
55.6354 63.5621 402.564 66 66 66 
19.6353 74.7506 375.429 0 0 0 
19.4336 74.8296 374.125 0 0 0 
19.0395 74.6415 373.424 10 10 10 
13.1733 73.8726 369.879 5 5 5 
13.0527 73.7039 368.388 2 2 2 
10.6402 73.1457 369.129 0 0 0 
9.57452 71.0098 364.882 1 1 1 
8.40035 68.9246 364.183 0 0 0 
8.3993 68.8159 364.063 0 0 0 
8.39358 68.1095 363.571 1 1 1 
8.43638 67.9038 363.405 1 1 1 
9.53498 66.5634 364.899 1 1 1 
18.7641 64.7046 371.233 7 7 7 
24.1329 63.0637 375.956 39 39 39 
25.3485 62.5153 377.39 41 41 41 
26.4048 62.145 378.459 54 54 54 
27.8947 62.0148 380.584 62 62 62 
29.5238 61.6554 381.574 68 68 68 
30.5332 61.2263 382.44 72 72 72 
31.3785 60.8711 382.659 70 70 70 
32.0567 60.4638 383.006 67 67 67 
32.0192 60.1052 384.447 58 58 58 
33.5117 59.6135 384.457 44 44 44 
34.0722 59.2759 384.506 40 40 40 
34.3011 58.839 385.49 37 37 37 
35.5271 58.5693 385.262 39 39 39 
35.6371 58.3245 386.216 42 42 42 
37.1119 57.7124 385.834 47 47 47 
36.4197 57.3104 387.231 53 53 53 
37.393 56.9303 387.008 42 42 42 
38.3728 56.4325 387.638 47 47 47 
39.5079 56.1375 388.473 56 56 56 
40.929 55.5986 389.489 56 56 56 
42.2926 55.4387 390.305 57 57 57 
43.6908 55.1875 391.412 58 58 58 
45.09 54.9152 392.376 60 60 60 
46.6552 54.5329 394.109 61 61 61 
48.5456 54.2326 395.701 62 62 62 
50.0428 53.8442 395.505 63 63 63 
50.2056 53.398 396.733 63 63 63 
50.5073 52.8893 396.59 68 68 68 
50.501 52.1769 395.508 75 75 75 
48.5905 51.2891 395.136 87 87 87 
48.493 50.4466 394.206 94 94 94 
46.7362 49.921 393.347 118 118 118 
46.032 49.2398 392.633 131 131 131 
45.1273 48.9511 392.411 133 133 133 
44.8596 48.9717 392.354 126 126 126 
44.3318 48.9662 391.478 121 121 121 
44.7485 48.9836 391.63 122 122 122 
45.0039 49.0084 391.86 128 128 128 
45.6988 49.2872 391.917 134 134 134 
46.4981 49.54 392.457 134 134 134 
46.7016 49.8779 393.874 121 121 121 
47.554 50.0174 393.736 121 121 121 
47.9057 50.1684 393.778 114 114 114 
47.4543 50.3603 393.456 113 113 113 
47.1509 50.4637 393.514 110 110 110 
46.162 50.3173 393.365 116 116 116 
45.7375 50.4828 392.45 117 117 117 
44.6089 50.5558 391.593 105 105 105 
43.2415 50.5038 391.057 109 109 109 
41.8575 50.698 390.282 72 72 72 
41.1779 50.6906 388.491 37 37 37 
39.8747 50.712 387.51 41 41 41 
38.3485 50.8534 387.033 57 57 57 
37.0667 51.0115 386.67 85 85 85 
36.1935 51.2422 385.131 80 80 80 
35.1033 51.3227 384.107 101 101 101 
33.1755 51.6206 383.82 90 90 90 
32.4802 51.9947 382.829 77 77 77 
31.8281 52.1681 382.384 85 85 85 
31.3426 52.6239 381.254 75 75 75 
30.6457 52.885 380.654 75 75 75 
29.1637 53.3178 380.613 70 70 70 
29.0792 53.7485 379.946 67 67 67 
29.1029 54.0788 379.666 66 66 66 
28.3396 54.4621 378.977 64 64 64 
27.7155 54.8432 378.785 63 63 63 
26.6852 55.0406 378.123 60 60 60 
26.126 55.2165 377.851 61 61 61 
26.0567 54.947 376.031 66 66 66 
23.8027 54.9561 376.012 66 66 66 
23.6798 54.7425 375.015 66 66 66 
22.663 54.7891 374.291 68 68 68 
22.5489 54.5984 373.203 73 73 73 
21.7018 54.7019 373.48 75 75 75 
21.8113 54.8396 372.268 71 71 71 
21.4696 55.23 373.28 70 70 70 
21.4514 55.2994 373.618 68 68 68 
22.1248 55.4168 374.243 69 69 69 
23.0106 55.44 374.33 67 67 67 
24.163 55.4537 375.901 65 65 65 
24.9237 55.7718 376.912 65 65 65 
27.5984 55.3958 377.469 62 62 62 
29.0019 55.3834 378.984 65 65 65 
29.8257 55.2926 380.506 57 57 57 
31.3015 55.1395 382.234 60 60 60 
33.2798 54.7565 383.27 63 63 63 
34.7972 54.2535 383.798 66 66 66 
35.7034 54.0881 385.462 67 67 67 
37.5741 53.4804 386.211 43 43 43 
38.9746 53.0138 386.902 71 71 71 
39.3932 52.5481 387.724 83 83 83 
40.3793 52.0101 387.887 89 89 89 
40.6844 51.6019 389.475 93 93 93 
40.9651 51.3176 389.67 73 73 73 
42.2743 50.9067 388.999 70 70 70 
43.8043 50.5819 389.632 76 76 76 
44.2854 50.5533 390.806 109 109 109 
44.9731 50.5197 391.343 105 105 105 
45.856 50.5875 392.477 114 114 114 
47.1816 50.4973 393.068 100 100 100 
48.3818 50.1845 394.491 109 109 109 
48.9282 50.5886 395.654 92 92 92 
50.6624 50.4987 396.643 90 90 90 
52.4317 50.7444 397.67 90 90 90 
53.6285 51.0685 398.674 86 86 86 
54.7005 51.2681 399.716 79 79 79 
55.3887 51.6229 400.454 77 77 77 
56.7626 51.9033 401.022 75 75 75 
58.0542 52.0224 402.161 73 73 73 
58.5191 52.2919 403.101 78 78 78 
59.5908 52.5313 403.738 69 69 69 
59.9587 52.7863 404.238 49 49 49 
60.5932 52.8472 404.178 55 55 55 
60.5049 52.8048 405.369 58 58 58 
60.9959 52.4994 404.829 60 60 60 
60.7234 52.4044 405.017 64 64 64 
60.8728 52.2783 404.153 64 64 64 
60.5972 51.9615 404.442 65 65 65 
60.6642 51.5287 404.753 63 63 63 
59.8294 51.1625 403.867 56 56 56 
59.8373 50.8098 404.558 46 46 46 
59.1773 50.9533 403.597 57 57 57 
59.4788 50.6349 403.406 59 59 59 
59.1708 50.6741 403.696 47 47 47 
59.9318 50.6305 403.911 45 45 45 
58.8781 50.9694 403.979 59 59 59 
58.7114 51.0515 402.814 81 81 81 
58.2861 51.0108 402.481 83 83 83 
56.9474 51.2115 401.821 80 80 80 
55.7677 51.2392 400.991 82 82 82 
54.4818 51.1404 399.595 79 79 79 
53.48 51.0484 398.969 85 85 85 
51.5132 51.1372 398.354 86 86 86 
50.2997 51.0872 395.968 85 85 85 
48.2534 51.2454 396.044 89 89 89 
46.4724 51.4175 393.732 91 91 91 
45.0225 51.5662 392.547 94 94 94 
43.6293 51.4645 391.463 87 87 87 
42.4093 51.3402 389.802 85 85 85 
40.6631 51.5649 388.508 89 89 89 
39.5334 51.6758 387.348 88 88 88 
37.9895 51.8517 386.899 83 83 83 
36.2397 51.9292 386.062 60 60 60 
36.3506 52.1017 384.295 86 86 86 
34.1381 52.3123 383.977 82 82 82 
33.0914 52.4193 382.71 79 79 79 
31.5404 52.603 381.001 72 72 72 
29.6022 52.8894 379.847 75 75 75 
28.2261 53.0152 378.868 72 72 72 
26.6548 53.5282 377.995 74 74 74 
25.5335 53.7733 376.142 66 66 66 
24.2412 54.2577 375.516 68 68 68 
23.3751 54.6502 375.321 68 68 68 
23.0282 55.1222 374.642 67 67 67 
22.368 55.514 374.272 67 67 67 
21.945 55.7846 373.53 67 67 67 
22.5143 56.107 372.852 64 64 64 
20.6162 56.5988 373.927 62 62 62 
20.4751 56.7552 372.955 64 64 64 
20.4207 57.2005 372.446 68 68 68 
20.3517 57.7374 372.08 61 61 61 
20.6113 58.2212 372.827 123 123 123 
20.2104 58.4097 372.208 142 142 142 
20.4304 58.7961 372.085 143 143 143 
20.7881 59.1249 372.081 114 114 114 
20.4986 59.4562 372.397 110 110 110 
20.8711 59.9209 373.237 110 110 110 
21.6516 59.9474 373.016 90 90 90 
21.9863 60.2846 373.078 73 73 73 
22.4353 60.5358 373.965 65 65 65 
22.7906 60.9061 374.535 73 73 73 
23.0687 61.048 375.033 86 86 86 
23.1601 61.0371 376.339 43 43 43 
23.6996 60.946 375.809 45 45 45 
25.0032 60.7468 376.356 48 48 48 
24.7732 61.0208 377.566 48 48 48 
25.8155 60.863 378.159 47 47 47 
26.4957 60.8642 379.171 49 49 49 
27.1881 60.6171 379.893 46 46 46 
28.2628 60.4636 379.625 42 42 42 
29.2533 60.2535 379.971 41 41 41 
29.7349 60.1021 381.074 40 40 40 
30.489 59.948 382.094 41 41 41 
31.4248 59.7455 382.479 42 42 42 
32.7941 59.4443 383.373 39 39 39 
34.584 59.281 384.984 40 40 40 
36.2863 59.2103 386.032 40 40 40 
37.6705 59.0185 387.275 39 39 39 
38.4966 59.1086 388.544 44 44 44 
39.7445 59.0773 390.444 52 52 52 
41.0869 58.8476 389.852 46 46 46 
42.2874 58.8286 391.096 52 52 52 
43.8072 58.9317 392.447 57 57 57 
45.2866 59.1019 393.619 67 67 67 
47.1137 59.5812 395.133 95 95 95 
49.2985 59.8255 396.495 98 98 98 
51.2896 59.8746 397.529 89 89 89 
52.206 60.2872 399.268 64 64 64 
53.6226 60.4493 400.28 48 48 48 
55.0252 60.7479 401.099 42 42 42 
56.0942 60.8523 402.814 39 39 39 
56.6303 60.6753 402.936 38 38 38 
57.4942 60.5914 403.894 38 38 38 
57.4928 60.6254 404.315 36 36 36 
58.5931 60.4422 404.796 39 39 39 
59.2948 60.1916 405.139 39 39 39 
59.7198 60.2163 405.787 29 29 29 
60.6966 60.0859 405.76 38 38 38 
61.5868 60.0559 406.753 35 35 35 
61.7696 60.2177 407.367 28 28 28 
62.4629 60.1156 407.405 37 37 37 
65.3729 60.0991 409.582 0 0 0 
62.8102 59.9644 407.272 25 25 25 
61.4915 60.0749 406.949 31 31 31 
60.291 60.355 405.942 38 38 38 
59.8424 60.683 405.277 28 28 28 
58.4266 61.2522 404.668 34 34 34 
57.3856 61.4116 404.376 36 36 36 
56.5604 61.8484 402.934 32 32 32 
55.279 62.3224 401.664 52 52 52 
54.4461 63.1277 401.817 68 68 68 
53.6298 63.5476 401.155 72 72 72 
52.9794 64.3812 400.982 38 38 38 
52.2465 65.1673 401.062 7 7 7 
51.7547 65.6535 400.82 6 6 6 
77.4717 67.1723 419.975 0 0 0 
77.017 67.0713 418.509 0 0 0 
77.1143 67.1876 418.716 0 0 0 
80.6846 47.3233 423.073 20 20 20 
80.711 47.341 422.813 23 23 23 
81.0467 47.5687 422.746 22 22 22 
81.2582 48.116 423.625 25 25 25 
81.6484 48.0972 423.152 28 28 28 
81.7646 48.1006 423.204 28 28 28 
81.0244 47.9214 423.595 23 23 23 
80.587 47.621 422.61 13 13 13 
80.6034 46.6656 422.934 19 19 19 
79.6094 46.8942 421.849 31 31 31 
79.1718 47.0963 419.132 60 60 60 
78.7093 46.9563 419.23 63 63 63 
78.6733 46.9349 419.354 35 35 35 
78.8517 47.2998 419.515 53 53 53 
79.1093 47.0108 419.574 20 20 20 
78.703 46.9525 419.519 35 35 35 
78.5602 47.0559 418.825 82 82 82 
78.1459 47.2045 418.324 85 85 85 
77.7525 47.3862 417.909 71 71 71 
77.3666 47.641 417.676 54 54 54 
76.999 47.9685 416.189 86 86 86 
76.5297 47.932 416.446 77 77 77 
76.576 48.3936 415.526 79 79 79 
76.7219 48.5224 415.502 76 76 76 
76.2156 48.9016 416.059 84 84 84 
75.8169 49.0397 415.861 82 82 82 
76.5463 48.924 415.106 67 67 67 
75.2152 49.4849 415.665 36 36 36 
70.7109 50.2578 411.112 8 8 8 
70.5294 50.0213 410.674 14 14 14 
70.0106 49.9531 411.029 20 20 20 
70.1385 50.0935 410.695 25 25 25 
70.111 50.2206 410.505 23 23 23 
69.9472 50.4956 410.625 28 28 28 
69.9726 50.3273 410.81 20 20 20 
69.2132 50.4401 409.673 32 32 32 
68.8816 49.9196 409.157 70 70 70 
67.489 49.6679 410.011 94 94 94 
66.347 49.2393 408.186 62 62 62 
66.1184 48.9958 408.569 73 73 73 
65.0963 48.4529 407.373 99 99 99 
64.0604 47.9977 406.769 104 104 104 
63.8087 47.7619 406.961 111 111 111 
63.6768 47.5712 406.401 103 103 103 
63.4634 47.3893 406.743 98 98 98 
63.23 46.9989 406.986 99 99 99 
64.2441 46.6481 406.456 102 102 102 
63.6052 46.573 407.412 102 102 102 
63.5064 46.2861 407.446 102 102 102 
63.639 46.2966 407.765 103 103 103 
64.1159 46.1429 408.052 104 104 104 
64.0983 46.0912 408.095 103 103 103 
63.9094 45.8757 408.761 98 98 98 
64.6778 45.7818 408.182 105 105 105 
64.8706 45.7827 407.861 105 105 105 
65.536 45.8028 408.765 101 101 101 
65.7513 45.9475 408.553 101 101 101 
66.5102 45.9957 408.893 98 98 98 
66.6328 45.9717 409.322 100 100 100 
66.8211 45.8704 410.366 102 102 102 
67.3414 45.812 410.959 101 101 101 
68.4601 45.9795 410.434 103 103 103 
69.0377 46.0897 411.123 106 106 106 
70.3403 46.0931 411.127 103 103 103 
70.483 46.1032 412.345 97 97 97 
71.7929 46.4549 413.239 95 95 95 
73.2206 46.5002 413.611 167 167 167 
73.693 46.7145 414.077 106 106 106 
74.1289 46.8712 414.573 100 100 100 
75.0318 46.9177 414.899 79 79 79 
74.9269 46.9638 415.176 81 81 81 
75.4197 46.9212 415.686 82 82 82 
75.5121 46.9054 416.319 69 69 69 
76.1947 47.0153 416.583 63 63 63 
77.3691 46.917 417.139 57 57 57 
77.9985 47.3155 418.419 71 71 71 
79.499 47.7881 419.314 79 79 79 
81.007 48.1779 422.88 14 14 14 
81.8103 48.1471 423.913 30 30 30 
81.704 49.8613 422.833 57 57 57 
80.7052 50.2533 421.387 55 55 55 
79.9793 50.8428 419.478 68 68 68 
76.4502 52.7037 417.131 0 0 0 
69.6562 54.6702 412.094 7 7 7 
67.7683 54.564 410.258 0 0 0 
67.0247 54.0111 410.671 0 0 0 
65.223 52.855 407.762 62 62 62 
64.3885 52.4667 407.233 87 87 87 
63.3664 52.5722 407.132 65 65 65 
62.7171 52.5219 406.75 60 60 60 
62.5269 52.3243 405.973 71 71 71 
61.6699 52.3791 405.282 70 70 70 
61.6803 52.5636 405.98 67 67 67 
61.6864 52.5499 404.913 67 67 67 
61.7077 52.6215 405.303 67 67 67 
61.7406 52.7953 405.215 65 65 65 
62.622 52.8302 405.917 67 67 67 
63.0776 52.6685 407.104 53 53 53 
64.4898 52.9784 407.996 86 86 86 
68.256 53.672 410.904 0 0 0 
76.868 49.0363 415.389 79 79 79 
77.1724 48.1379 416.388 88 88 88 
77.4532 47.1334 417.515 56 56 56 
77.4653 46.3342 417.994 68 68 68 
78.1325 44.7668 420.413 14 14 14 
79.1157 43.8729 421.649 90 90 90 
80.0097 43.5414 424.355 98 98 98 
79.7601 45.2073 422.424 17 17 17 
79.3 45.6684 421.509 30 30 30 
78.2605 45.8494 420.469 3 3 3 
78.2283 45.8296 420.477 4 4 4 
78.6393 45.1495 420.98 19 19 19 
